ncols 259
nrows 32
xllcorner 283733.125
yllcorner 3355535.375
cellsize 1.0
NODATA_value -9999
-2.173125 -2.160000 -2.150625 -2.142500 -2.135625 -2.139375 -2.142500 -2.140000 -2.136875 -2.123750 -2.113750 -2.104375 -2.095625 -2.085000 -2.080625 -2.077500 -2.086875 -2.071875 -2.065000 -2.065625 -2.058125 -2.053125 -2.049375 -2.045625 -2.048125 -2.053125 -2.073750 -2.063750 -2.036875 -2.028125 -2.021250 -2.015625 -2.017500 -2.019375 -2.019375 -2.016250 -2.008125 -1.996250 -1.994375 -1.995625 -1.988750 -1.992500 -1.991875 -1.991875 -1.990000 -1.983750 -1.968125 -1.961875 -1.959375 -1.959375 -1.954375 -1.957500 -1.951875 -1.950000 -1.955000 -1.948750 -1.926250 -1.915625 -1.910000 -1.905000 -1.902500 -1.902500 -1.900000 -1.898750 -1.898125 -1.901875 -1.903750 -1.901250 -1.898750 -1.902500 -1.914375 -1.905625 -1.905625 -1.919375 -1.931250 -1.950625 -1.983125 -1.968750 -1.971250 -1.970000 -1.973750 -1.982500 -1.996875 -2.010000 -2.016250 -2.035625 -2.045000 -2.048125 -2.053125 -2.058750 -2.070625 -2.101250 -2.128750 -2.141250 -2.142500 -2.148750 -2.160625 -2.150000 -2.138750 -2.143750 -2.149375 -2.132500 -2.121250 -2.111875 -2.100000 -2.103750 -2.097500 -2.095625 -2.105000 -2.121250 -2.131250 -2.136250 -2.170625 -2.214375 -2.243125 -2.275000 -2.311875 -2.371875 -2.371250 -2.313125 -2.266250 -2.204375 -2.185625 -2.213750 -2.181875 -2.178125 -2.186250 -2.198125 -2.190000 -2.174375 -2.166875 -2.157500 -2.153125 -2.144375 -2.135000 -2.150000 -2.160000 -2.155000 -2.145625 -2.145625 -2.151250 -2.141250 -2.133125 -2.126250 -2.121875 -2.121250 -2.166250 -2.323125 -2.383750 -2.263750 -2.165000 -2.116250 -2.111250 -2.117500 -2.123125 -2.119375 -2.110625 -2.113125 -2.150625 -2.264375 -2.268125 -2.157500 -2.130625 -2.153125 -2.151875 -2.152500 -2.160625 -2.191875 -2.218750 -2.226250 -2.215000 -2.195000 -2.200625 -2.193750 -2.215000 -2.213125 -2.234375 -2.241250 -2.227500 -2.221250 -2.236250 -2.248125 -2.250000 -2.224375 -2.226875 -2.220000 -2.212500 -2.201875 -2.193125 -2.199375 -2.224375 -2.216875 -2.196250 -2.163750 -2.162500 -2.150000 -2.145625 -2.160625 -2.196875 -2.209375 -2.192500 -2.193125 -2.212500 -2.237500 -2.249375 -2.239375 -2.220000 -2.184375 -2.163125 -2.188125 -2.278125 -2.313125 -2.267500 -2.185625 -2.125000 -2.091875 -2.062500 -2.065625 -2.037500 -1.976875 -2.038750 -2.043125 -2.027500 -2.005000 -1.999375 -1.986875 -1.997500 -2.002500 -2.001250 -2.025000 -2.012500 -2.013125 -2.013750 -2.008125 -2.012500 -2.012500 -2.026875 -2.075625 -2.116250 -2.115000 -2.088750 -2.016250 -1.957500 -1.876875 -1.888125 -1.928125 -1.948125 -1.978125 -1.981875 -1.968750 -1.949375 -1.873750 -1.841875 -1.833750 -1.746250 -1.718125 -1.686875 -1.674375 -1.681875
-2.188125 -2.165000 -2.141250 -2.125625 -2.125625 -2.139375 -2.142500 -2.131250 -2.114375 -2.106250 -2.101875 -2.088750 -2.079375 -2.071250 -2.067500 -2.064375 -2.074375 -2.061875 -2.054375 -2.053750 -2.051250 -2.038750 -2.032500 -2.034375 -2.031250 -2.033125 -2.030625 -2.031250 -2.038750 -2.026875 -2.014375 -2.010625 -2.005000 -2.008750 -2.010000 -2.018125 -2.006250 -1.991875 -1.977500 -1.987500 -1.988125 -1.986250 -1.984375 -1.983750 -1.978125 -1.970625 -1.956875 -1.955000 -1.945625 -1.948750 -1.947500 -1.951875 -1.941250 -1.935000 -1.928125 -1.928125 -1.917500 -1.915000 -1.906250 -1.900000 -1.896250 -1.896250 -1.899375 -1.898750 -1.891250 -1.895625 -1.893750 -1.895625 -1.901875 -1.896250 -1.900000 -1.900000 -1.905000 -1.918125 -1.920625 -1.936875 -1.951250 -1.958750 -1.963750 -1.968125 -1.976250 -1.987500 -1.992500 -2.008125 -2.016250 -2.027500 -2.038750 -2.048750 -2.053125 -2.061250 -2.075625 -2.093750 -2.126250 -2.138750 -2.141875 -2.150625 -2.170000 -2.170000 -2.156250 -2.177500 -2.164375 -2.133750 -2.122500 -2.114375 -2.109375 -2.112500 -2.126875 -2.105625 -2.104375 -2.125000 -2.141875 -2.152500 -2.202500 -2.215625 -2.248750 -2.268750 -2.301875 -2.353125 -2.363750 -2.320000 -2.273125 -2.233750 -2.193125 -2.188750 -2.180625 -2.186250 -2.188125 -2.175625 -2.169375 -2.165000 -2.155000 -2.145625 -2.142500 -2.135625 -2.129375 -2.136875 -2.147500 -2.148125 -2.140625 -2.142500 -2.146875 -2.143750 -2.133750 -2.128125 -2.121875 -2.120625 -2.176875 -2.293125 -2.341875 -2.304375 -2.213125 -2.136875 -2.129375 -2.133750 -2.137500 -2.127500 -2.121250 -2.107500 -2.100625 -2.168750 -2.239375 -2.160625 -2.140000 -2.148750 -2.163125 -2.189375 -2.166875 -2.183750 -2.220625 -2.246250 -2.275625 -2.280000 -2.287500 -2.265625 -2.266875 -2.232500 -2.214375 -2.202500 -2.221875 -2.258125 -2.256875 -2.273125 -2.265625 -2.227500 -2.213125 -2.209375 -2.200625 -2.183750 -2.176250 -2.176875 -2.200625 -2.200000 -2.190625 -2.186875 -2.192500 -2.181250 -2.154375 -2.153125 -2.171875 -2.171250 -2.180000 -2.203750 -2.217500 -2.217500 -2.196250 -2.144375 -2.119375 -2.112500 -2.130000 -2.175625 -2.246250 -2.258750 -2.202500 -2.132500 -2.067500 -2.035625 -2.027500 -2.023750 -1.991875 -1.960625 -1.976875 -1.975625 -1.963125 -1.951875 -1.945625 -1.943750 -1.947500 -1.961875 -1.985000 -2.008125 -1.973125 -1.960000 -1.974375 -1.994375 -2.021250 -2.026250 -1.966250 -2.031250 -2.075625 -2.110625 -2.083750 -2.026250 -1.986250 -1.894375 -1.865000 -1.901250 -1.924375 -1.915000 -1.899375 -1.886250 -1.886250 -1.830000 -1.790625 -1.756875 -1.668125 -1.729375 -1.703125 -1.695000 -1.698125
-2.171875 -2.206250 -2.140625 -2.126875 -2.121875 -2.123750 -2.128750 -2.113125 -2.093125 -2.081875 -2.076875 -2.071875 -2.073750 -2.069375 -2.066250 -2.063750 -2.058125 -2.051875 -2.054375 -2.053750 -2.045625 -2.029375 -2.030625 -2.024375 -2.023750 -2.022500 -2.025625 -2.018125 -2.011250 -2.024375 -2.026250 -2.008125 -1.995625 -1.998750 -1.996250 -2.015625 -1.996250 -1.987500 -1.970625 -1.976250 -1.980625 -1.973125 -1.975625 -1.975000 -1.968125 -1.960625 -1.945000 -1.941250 -1.933125 -1.932500 -1.928750 -1.933125 -1.932500 -1.928750 -1.923125 -1.922500 -1.911875 -1.908750 -1.905000 -1.900625 -1.894375 -1.891250 -1.890625 -1.891250 -1.883750 -1.883750 -1.887500 -1.890000 -1.888750 -1.895000 -1.900000 -1.900625 -1.901875 -1.915625 -1.919375 -1.923750 -1.935625 -1.941250 -1.945625 -1.959375 -1.976250 -1.986875 -1.993125 -2.005625 -2.016875 -2.027500 -2.037500 -2.047500 -2.051250 -2.070000 -2.081250 -2.095000 -2.124375 -2.147500 -2.157500 -2.157500 -2.189375 -2.201250 -2.211875 -2.207500 -2.152500 -2.131875 -2.125625 -2.115000 -2.105000 -2.120000 -2.133125 -2.104375 -2.103125 -2.114375 -2.150625 -2.158125 -2.193125 -2.221875 -2.217500 -2.238125 -2.279375 -2.324375 -2.343125 -2.319375 -2.273125 -2.230000 -2.213750 -2.197500 -2.189375 -2.181250 -2.175000 -2.168125 -2.157500 -2.155625 -2.149375 -2.135625 -2.128750 -2.122500 -2.122500 -2.123750 -2.137500 -2.146250 -2.142500 -2.143750 -2.141875 -2.148750 -2.141250 -2.124375 -2.107500 -2.106875 -2.125000 -2.170000 -2.206875 -2.168125 -2.163750 -2.142500 -2.139375 -2.146250 -2.142500 -2.136875 -2.135625 -2.125000 -2.102500 -2.120625 -2.183750 -2.166250 -2.158125 -2.155000 -2.174375 -2.216250 -2.234375 -2.241250 -2.241875 -2.230625 -2.246875 -2.241875 -2.238750 -2.228750 -2.225000 -2.197500 -2.193125 -2.203125 -2.221875 -2.235000 -2.230625 -2.249375 -2.256875 -2.222500 -2.201250 -2.182500 -2.171875 -2.165625 -2.169375 -2.169375 -2.185625 -2.203750 -2.204375 -2.211875 -2.221250 -2.205000 -2.156875 -2.145625 -2.161875 -2.174375 -2.181875 -2.197500 -2.184375 -2.166250 -2.140000 -2.145625 -2.137500 -2.151250 -2.176875 -2.180625 -2.196250 -2.154375 -2.123750 -2.077500 -2.037500 -2.006250 -1.989375 -1.976250 -1.955000 -1.943125 -1.938750 -1.925625 -1.922500 -1.920000 -1.921875 -1.918125 -1.912500 -1.915625 -1.974375 -2.042500 -1.953750 -1.950625 -1.965000 -1.984375 -2.020000 -2.038750 -1.998750 -1.986875 -2.046250 -2.095000 -2.057500 -2.025000 -1.993750 -1.922500 -1.864375 -1.886250 -1.926875 -1.900625 -1.703125 -1.823750 -1.780000 -1.772500 -1.748125 -1.727500 -1.740000 -1.725625 -1.713125 -1.713125 -1.703571
-2.101250 -2.185625 -2.179375 -2.132500 -2.083750 -2.102500 -2.103750 -2.090625 -2.081250 -2.069375 -2.065625 -2.063125 -2.061875 -2.068750 -2.063750 -2.060000 -2.056250 -2.043125 -2.032500 -2.030000 -2.031875 -2.028750 -2.018750 -2.013750 -2.020000 -2.019375 -2.023750 -2.017500 -2.012500 -2.006875 -2.014375 -1.976250 -1.955625 -1.998750 -1.995000 -1.988750 -1.999375 -1.989375 -1.971875 -1.970000 -1.969375 -1.972500 -1.971250 -1.967500 -1.966875 -1.952500 -1.945000 -1.948125 -1.936875 -1.930625 -1.928125 -1.931875 -1.936875 -1.931250 -1.926875 -1.921250 -1.912500 -1.910000 -1.907500 -1.900000 -1.895625 -1.895625 -1.893750 -1.890000 -1.885000 -1.880625 -1.885000 -1.889375 -1.888750 -1.886250 -1.901250 -1.898750 -1.906875 -1.910625 -1.923125 -1.936250 -1.949375 -1.948125 -1.950000 -1.971250 -1.978750 -1.986875 -2.006875 -2.006875 -2.015000 -2.028750 -2.032500 -2.037500 -2.053125 -2.073125 -2.084375 -2.093750 -2.118750 -2.153750 -2.146875 -2.155000 -2.196250 -2.211250 -2.223125 -2.193125 -2.153125 -2.136250 -2.128750 -2.118750 -2.106250 -2.111875 -2.131875 -2.114375 -2.110000 -2.112500 -2.136875 -2.160000 -2.170625 -2.181875 -2.196875 -2.228750 -2.274375 -2.301875 -2.328125 -2.318750 -2.283125 -2.241875 -2.210625 -2.185625 -2.170625 -2.171250 -2.165000 -2.156875 -2.147500 -2.145625 -2.137500 -2.128125 -2.120625 -2.119375 -2.122500 -2.116250 -2.130000 -2.133125 -2.134375 -2.136250 -2.131250 -2.135625 -2.130000 -2.123750 -2.115000 -2.113750 -2.135000 -2.136250 -2.175625 -2.173750 -2.176250 -2.166250 -2.165000 -2.158750 -2.148750 -2.146875 -2.154375 -2.140000 -2.124375 -2.143125 -2.187500 -2.189375 -2.193750 -2.218125 -2.230000 -2.219375 -2.194375 -2.173125 -2.179375 -2.195625 -2.221250 -2.233750 -2.249375 -2.238125 -2.214375 -2.203125 -2.204375 -2.206250 -2.211250 -2.231250 -2.216875 -2.216875 -2.228750 -2.225000 -2.193125 -2.176250 -2.179375 -2.181250 -2.176250 -2.171250 -2.176875 -2.195625 -2.203125 -2.202500 -2.203750 -2.183125 -2.148750 -2.142500 -2.138125 -2.138750 -2.138125 -2.171875 -2.166875 -2.129375 -2.123750 -2.125625 -2.139375 -2.145000 -2.133750 -2.120000 -2.093125 -2.048125 -2.023750 -1.976250 -1.958125 -1.944375 -1.942500 -1.928750 -1.917500 -1.913125 -1.909375 -1.900000 -1.893750 -1.885625 -1.885625 -1.888750 -1.896875 -1.893125 -1.891875 -1.989375 -1.989375 -1.977500 -1.944375 -1.956250 -2.001875 -2.038750 -2.000000 -1.982500 -2.000625 -2.056875 -2.045625 -2.029375 -1.966875 -1.949375 -1.887500 -1.878750 -1.905000 -1.860625 -1.743750 -1.777500 -1.740000 -1.747500 -1.733750 -1.697333 -1.726000 -1.720000 -1.720000 -9999.000000 -9999.000000
-2.080625 -2.097500 -2.169375 -2.113125 -2.057500 -2.070625 -2.070625 -2.068750 -2.062500 -2.060000 -2.053750 -2.053750 -2.057500 -2.065000 -2.062500 -2.060000 -2.051875 -2.043125 -2.026875 -2.019375 -2.020000 -2.020625 -2.005625 -2.007500 -2.006250 -2.005000 -2.006875 -1.998125 -1.991250 -1.992500 -1.995000 -1.985000 -1.981250 -1.994375 -1.995625 -1.992500 -1.998750 -1.998125 -1.990000 -1.979375 -1.965625 -1.983750 -1.984375 -1.970000 -1.960000 -1.953750 -1.956250 -1.955625 -1.948750 -1.936250 -1.930000 -1.941875 -1.942500 -1.929375 -1.927500 -1.916875 -1.914375 -1.913125 -1.908125 -1.896250 -1.896250 -1.898125 -1.900625 -1.893750 -1.885000 -1.870625 -1.891875 -1.894375 -1.888750 -1.884375 -1.898125 -1.906875 -1.915625 -1.911875 -1.932500 -1.960625 -1.974375 -1.974375 -1.978125 -1.973125 -1.985625 -1.995625 -2.002500 -2.007500 -2.011250 -2.021875 -2.024375 -2.033750 -2.056875 -2.076250 -2.090000 -2.095000 -2.131250 -2.171875 -2.158750 -2.158750 -2.211250 -2.215625 -2.211875 -2.173750 -2.149375 -2.133125 -2.123750 -2.122500 -2.110625 -2.110000 -2.133750 -2.114375 -2.112500 -2.110625 -2.124375 -2.154375 -2.166875 -2.172500 -2.189375 -2.227500 -2.265625 -2.281250 -2.308750 -2.330625 -2.307500 -2.245625 -2.208750 -2.179375 -2.162500 -2.161875 -2.161250 -2.151875 -2.143750 -2.132500 -2.135625 -2.129375 -2.120000 -2.119375 -2.122500 -2.115000 -2.120625 -2.130000 -2.132500 -2.136250 -2.135000 -2.141875 -2.141875 -2.147500 -2.140000 -2.158750 -2.160625 -2.170625 -2.208750 -2.220000 -2.212500 -2.208125 -2.200625 -2.183125 -2.168125 -2.159375 -2.165625 -2.159375 -2.140625 -2.152500 -2.194375 -2.213125 -2.211250 -2.208125 -2.191250 -2.171250 -2.158750 -2.154375 -2.203125 -2.234375 -2.235000 -2.246875 -2.253750 -2.226875 -2.215000 -2.210625 -2.208750 -2.218125 -2.224375 -2.232500 -2.216875 -2.210625 -2.207500 -2.212500 -2.193125 -2.198125 -2.214375 -2.208125 -2.199375 -2.187500 -2.186875 -2.187500 -2.183750 -2.178125 -2.190000 -2.168750 -2.114375 -2.085625 -2.068125 -2.069375 -2.113125 -2.160625 -2.136875 -2.117500 -2.117500 -2.067500 -2.080000 -2.128750 -2.084375 -2.051250 -2.012500 -1.980000 -1.948125 -1.925625 -1.920625 -1.908750 -1.901875 -1.896250 -1.886875 -1.882500 -1.872500 -1.871875 -1.871250 -1.875000 -1.873125 -1.877500 -1.871875 -1.865625 -1.865000 -1.883125 -1.909375 -1.930625 -1.945000 -1.938125 -1.970625 -2.010625 -1.991250 -1.972500 -1.972500 -2.020000 -2.024375 -1.979375 -1.835625 -1.981875 -1.956875 -1.858125 -1.899375 -1.840000 -1.776250 -1.760000 -1.744545 -1.760000 -1.720000 -9999.000000 -9999.000000 -9999.000000 -9999.000000 -9999.000000 -9999.000000
-2.066875 -2.068750 -2.113125 -2.123750 -1.950000 -2.044375 -2.046250 -2.043125 -2.050000 -2.049375 -2.045625 -2.047500 -2.048125 -2.055625 -2.055000 -2.056250 -2.045625 -2.041250 -2.025000 -2.014375 -2.012500 -2.011250 -2.004375 -2.000000 -1.991250 -1.988750 -1.999375 -1.985000 -1.990625 -1.990625 -1.985000 -1.983125 -1.988125 -1.981875 -1.977500 -1.966875 -1.979375 -1.952500 -1.968125 -1.957500 -1.950000 -1.963125 -1.969375 -1.991250 -1.973125 -1.961250 -1.955000 -1.958125 -1.949375 -1.940000 -1.941250 -1.946875 -1.963750 -1.941875 -1.926250 -1.918750 -1.926875 -1.928125 -1.915000 -1.898125 -1.906875 -1.905000 -1.914375 -1.899375 -1.890000 -1.885625 -1.899375 -1.898125 -1.890625 -1.885625 -1.889375 -1.913125 -1.927500 -1.920000 -1.947500 -1.956250 -1.944375 -1.941875 -1.976875 -1.980000 -1.988125 -1.969375 -2.015625 -2.013750 -2.021250 -2.008125 -2.017500 -2.036250 -2.044375 -2.074375 -2.088750 -2.114375 -2.167500 -2.183125 -2.153750 -2.150625 -2.176250 -2.193125 -2.210000 -2.165000 -2.140625 -2.128125 -2.120000 -2.113750 -2.110000 -2.109375 -2.122500 -2.115000 -2.108125 -2.111250 -2.117500 -2.150625 -2.170000 -2.185625 -2.208125 -2.224375 -2.238125 -2.259375 -2.285000 -2.313125 -2.320625 -2.258125 -2.213125 -2.189375 -2.165000 -2.160000 -2.160000 -2.156875 -2.145625 -2.140000 -2.140000 -2.134375 -2.124375 -2.123125 -2.121250 -2.123125 -2.128750 -2.139375 -2.150625 -2.152500 -2.162500 -2.170000 -2.164375 -2.170000 -2.156875 -2.171875 -2.171250 -2.179375 -2.216875 -2.235625 -2.222500 -2.216875 -2.201250 -2.183750 -2.175000 -2.176250 -2.185625 -2.195000 -2.196250 -2.197500 -2.213125 -2.210625 -2.192500 -2.201250 -2.196875 -2.188125 -2.212500 -2.239375 -2.242500 -2.234375 -2.240625 -2.248125 -2.241875 -2.230000 -2.219375 -2.217500 -2.222500 -2.225625 -2.220625 -2.212500 -2.204375 -2.198125 -2.195625 -2.189375 -2.179375 -2.193750 -2.186250 -2.171250 -2.161875 -2.165625 -2.159375 -2.173125 -2.169375 -2.163125 -2.177500 -2.162500 -2.090625 -2.053750 -2.042500 -2.058125 -2.133750 -2.141250 -2.073125 -2.061250 -2.046875 -2.006875 -2.019375 -2.099375 -2.092500 -1.978750 -1.945000 -1.926250 -1.906250 -1.897500 -1.890625 -1.880000 -1.875000 -1.876875 -1.855625 -1.866875 -1.855625 -1.863125 -1.862500 -1.868125 -1.872500 -1.870000 -1.861875 -1.855000 -1.843750 -1.855000 -1.881875 -1.930625 -2.005625 -2.001250 -1.964375 -1.981875 -1.983125 -1.940000 -1.945625 -1.982500 -1.971250 -1.955000 -1.953125 -2.011875 -1.977500 -1.905000 -1.902500 -1.912500 -1.860000 -9999.000000 -9999.000000 -9999.000000 -9999.000000 -9999.000000 -9999.000000 -9999.000000 -9999.000000 -9999.000000 -9999.000000
-2.046250 -2.045000 -2.056250 -2.106250 -1.962500 -2.032500 -2.029375 -2.026250 -2.036875 -2.030625 -2.028750 -2.033125 -2.035625 -2.041875 -2.046250 -2.046250 -2.046875 -2.038750 -2.024375 -2.016250 -2.011875 -2.005000 -2.006250 -2.003750 -2.002500 -1.986875 -1.976250 -1.975625 -1.968125 -1.966875 -1.961250 -1.961875 -1.970000 -1.971875 -1.964375 -1.951250 -1.961250 -1.946250 -1.971250 -1.944375 -1.934375 -1.947500 -1.973750 -1.978750 -1.964375 -1.956875 -1.952500 -1.933750 -1.941875 -1.925000 -1.928750 -1.946250 -1.949375 -1.946250 -1.924375 -1.913750 -1.927500 -1.928125 -1.923125 -1.901250 -1.903125 -1.925000 -1.931250 -1.918125 -1.903750 -1.898750 -1.911250 -1.885625 -1.903750 -1.886875 -1.902500 -1.931875 -1.920000 -1.918125 -1.948750 -1.944375 -1.913125 -1.916875 -1.960625 -1.976250 -1.995625 -2.031250 -2.021875 -2.036250 -2.064375 -2.035625 -2.019375 -2.037500 -2.054375 -2.106875 -2.110625 -2.171250 -2.184375 -2.161875 -2.138125 -2.132500 -2.151250 -2.174375 -2.201875 -2.165625 -2.139375 -2.135625 -2.121875 -2.113750 -2.110000 -2.105625 -2.109375 -2.109375 -2.109375 -2.113125 -2.123750 -2.143750 -2.174375 -2.195625 -2.208125 -2.212500 -2.207500 -2.235000 -2.256875 -2.275625 -2.278750 -2.264375 -2.204375 -2.180625 -2.185625 -2.173125 -2.163125 -2.161875 -2.151250 -2.137500 -2.146875 -2.148125 -2.144375 -2.137500 -2.138125 -2.135000 -2.136875 -2.153750 -2.168750 -2.183750 -2.184375 -2.187500 -2.176875 -2.181250 -2.181875 -2.175625 -2.180625 -2.201250 -2.228750 -2.228750 -2.218125 -2.203750 -2.197500 -2.185000 -2.195625 -2.217500 -2.244375 -2.276250 -2.263750 -2.222500 -2.216875 -2.238125 -2.220000 -2.215625 -2.225625 -2.257500 -2.269375 -2.230625 -2.238750 -2.260625 -2.254375 -2.253750 -2.250000 -2.231250 -2.229375 -2.226875 -2.218125 -2.204375 -2.204375 -2.206250 -2.205000 -2.197500 -2.193125 -2.181875 -2.179375 -2.185625 -2.185000 -2.162500 -2.158125 -2.160000 -2.162500 -2.187500 -2.173750 -2.143125 -2.121875 -2.106250 -2.061250 -2.030000 -2.013750 -2.028125 -2.089375 -2.050000 -1.978750 -1.979375 -1.985625 -1.958750 -1.962500 -2.053750 -2.075000 -1.990000 -1.917500 -1.894375 -1.875000 -1.864375 -1.860000 -1.863125 -1.861250 -1.870625 -1.863125 -1.861250 -1.856250 -1.862500 -1.857500 -1.864375 -1.870000 -1.864375 -1.856250 -1.850000 -1.843750 -1.852500 -1.897500 -1.934375 -1.941250 -1.935625 -1.933750 -1.971875 -1.958750 -1.906875 -1.918750 -1.921875 -1.934375 -1.956875 -1.982308 -2.020000 -1.983333 -9999.000000 -9999.000000 -9999.000000 -9999.000000 -9999.000000 -9999.000000 -9999.000000 -9999.000000 -9999.000000 -9999.000000 -9999.000000 -9999.000000 -9999.000000 -9999.000000
-2.028125 -2.021875 -1.984375 -2.022500 -2.021250 -2.013125 -2.008750 -2.016875 -2.031250 -2.023125 -2.030625 -2.045625 -2.048750 -2.051875 -2.046875 -2.036250 -2.040625 -2.036875 -2.024375 -2.006250 -1.989375 -1.986250 -1.991250 -1.990625 -1.986250 -1.971250 -1.963125 -1.968750 -1.967500 -1.969375 -1.972500 -1.963750 -1.962500 -1.962500 -1.955000 -1.943750 -1.951250 -1.969375 -1.949375 -1.938125 -1.928750 -1.934375 -1.953125 -1.963125 -1.960625 -1.961250 -1.943125 -1.933125 -1.925000 -1.913750 -1.921875 -1.930625 -1.935625 -1.932500 -1.918125 -1.913125 -1.917500 -1.917500 -1.906250 -1.900625 -1.901250 -1.913125 -1.928750 -1.910625 -1.901875 -1.900000 -1.906250 -1.911875 -1.901875 -1.896875 -1.908125 -1.930000 -1.938125 -1.941250 -1.956250 -1.960625 -1.967500 -1.968125 -1.973750 -1.973750 -1.993125 -2.033125 -2.036250 -2.081250 -2.043750 -2.071875 -2.063125 -2.057500 -2.079375 -2.100000 -2.134375 -2.161250 -2.143125 -2.131250 -2.130625 -2.123125 -2.144375 -2.163750 -2.183125 -2.160625 -2.145625 -2.131875 -2.126875 -2.114375 -2.117500 -2.113750 -2.109375 -2.110000 -2.111875 -2.115625 -2.122500 -2.143750 -2.173125 -2.179375 -2.191875 -2.220000 -2.216875 -2.214375 -2.235625 -2.241875 -2.232500 -2.251250 -2.225000 -2.192500 -2.185625 -2.191250 -2.185000 -2.180000 -2.169375 -2.156250 -2.160000 -2.167500 -2.159375 -2.146875 -2.146250 -2.150625 -2.156250 -2.168125 -2.198750 -2.216250 -2.199375 -2.195000 -2.195000 -2.217500 -2.206875 -2.192500 -2.202500 -2.231875 -2.246250 -2.231875 -2.216250 -2.201250 -2.204375 -2.203125 -2.221250 -2.268125 -2.307500 -2.260000 -2.226250 -2.220000 -2.248750 -2.276250 -2.230000 -2.221250 -2.269375 -2.265625 -2.248750 -2.248750 -2.283125 -2.274375 -2.246250 -2.239375 -2.224375 -2.216250 -2.223750 -2.211250 -2.205000 -2.199375 -2.191250 -2.181875 -2.174375 -2.159375 -2.143750 -2.141250 -2.150625 -2.182500 -2.177500 -2.171875 -2.164375 -2.164375 -2.143125 -2.143125 -2.127500 -2.090625 -2.071875 -2.063125 -2.026875 -1.991875 -1.976250 -1.980000 -2.003750 -1.978125 -1.962500 -1.949375 -1.936250 -1.928125 -1.956250 -2.054375 -2.080000 -2.043750 -1.960000 -1.865000 -1.831250 -1.845000 -1.857500 -1.863750 -1.875000 -1.875625 -1.864375 -1.861250 -1.856250 -1.851875 -1.860625 -1.866250 -1.873125 -1.866250 -1.838125 -1.845333 -1.795000 -1.811875 -1.862500 -1.910000 -1.934375 -1.955625 -1.923125 -1.926875 -1.928125 -1.906250 -1.902143 -1.897273 -1.906667 -1.915000 -9999.000000 -9999.000000 -9999.000000 -9999.000000 -9999.000000 -9999.000000 -9999.000000 -9999.000000 -9999.000000 -9999.000000 -9999.000000 -9999.000000 -9999.000000 -9999.000000 -9999.000000 -9999.000000 -9999.000000
-1.985625 -1.984375 -1.990625 -2.011250 -2.005000 -2.016875 -2.011875 -2.022500 -2.014375 -2.014375 -2.021875 -2.018750 -2.016250 -2.028125 -2.023750 -2.010000 -2.013750 -2.015625 -2.002500 -1.995625 -1.978125 -1.978750 -1.970625 -1.995625 -1.965625 -1.958125 -1.953750 -1.947500 -1.941875 -1.929375 -1.963125 -1.973125 -1.961875 -1.977500 -1.952500 -1.951250 -1.965000 -1.946250 -1.942500 -1.935000 -1.925625 -1.928125 -1.954375 -1.971875 -1.983125 -1.971250 -1.946250 -1.929375 -1.921250 -1.913750 -1.920000 -1.928125 -1.924375 -1.923125 -1.919375 -1.912500 -1.910000 -1.908750 -1.904375 -1.900625 -1.901250 -1.900625 -1.920000 -1.904375 -1.898750 -1.897500 -1.900000 -1.900625 -1.901250 -1.906250 -1.914375 -1.934375 -1.949375 -1.963750 -1.965625 -1.971250 -1.987500 -2.006875 -2.013750 -2.005625 -2.027500 -2.054375 -2.085625 -2.112500 -2.084375 -2.093125 -2.058125 -2.050625 -2.063750 -2.072500 -2.117500 -2.126250 -2.123125 -2.118125 -2.126875 -2.130000 -2.133750 -2.152500 -2.159375 -2.154375 -2.147500 -2.136250 -2.136250 -2.115000 -2.115625 -2.113125 -2.113750 -2.113750 -2.111875 -2.117500 -2.125625 -2.140625 -2.160625 -2.170000 -2.191875 -2.218125 -2.233750 -2.221875 -2.225000 -2.216875 -2.207500 -2.223750 -2.231250 -2.206875 -2.188750 -2.203750 -2.211250 -2.192500 -2.179375 -2.170625 -2.178750 -2.215625 -2.194375 -2.165000 -2.163750 -2.166875 -2.177500 -2.191250 -2.222500 -2.229375 -2.209375 -2.200000 -2.205000 -2.220000 -2.209375 -2.196875 -2.199375 -2.230000 -2.255625 -2.233750 -2.216875 -2.203750 -2.209375 -2.217500 -2.289375 -2.305000 -2.258125 -2.230625 -2.215000 -2.216250 -2.255000 -2.285625 -2.260625 -2.267500 -2.264375 -2.252500 -2.265625 -2.275625 -2.265625 -2.227500 -2.210625 -2.211875 -2.218125 -2.224375 -2.215000 -2.196875 -2.186250 -2.174375 -2.165000 -2.154375 -2.148750 -2.130000 -2.110000 -2.095625 -2.098125 -2.111875 -2.121250 -2.130625 -2.099375 -2.078750 -2.065625 -2.062500 -2.070000 -2.045000 -2.036875 -2.045000 -2.006250 -1.970000 -1.964375 -1.956875 -1.951875 -1.933750 -1.907500 -1.905625 -1.920000 -1.927500 -1.939375 -2.038125 -2.064375 -2.007500 -1.914375 -1.834375 -1.826250 -1.861875 -1.888750 -1.876250 -1.872500 -1.870625 -1.864375 -1.861875 -1.855000 -1.865000 -1.841875 -1.878750 -1.871250 -1.825833 -1.872667 -1.847143 -1.863750 -1.807500 -1.875000 -1.883125 -1.971538 -2.055000 -1.980000 -1.901667 -1.922500 -1.900000 -9999.000000 -9999.000000 -9999.000000 -9999.000000 -9999.000000 -9999.000000 -9999.000000 -9999.000000 -9999.000000 -9999.000000 -9999.000000 -9999.000000 -9999.000000 -9999.000000 -9999.000000 -9999.000000 -9999.000000 -9999.000000 -9999.000000 -9999.000000 -9999.000000
-1.976875 -1.960000 -1.974375 -1.943750 -1.990625 -1.977500 -1.977500 -1.992500 -2.008750 -1.987500 -1.980625 -1.980625 -1.984375 -2.005625 -1.995625 -1.981875 -1.986250 -1.993750 -2.006250 -1.983125 -1.966875 -1.964375 -1.981250 -1.988750 -1.958125 -1.951250 -1.950000 -1.946875 -1.947500 -1.946875 -1.955625 -1.961250 -1.953750 -1.973750 -1.954375 -1.956250 -1.949375 -1.951875 -1.951875 -1.936250 -1.931875 -1.929375 -1.975625 -1.981250 -2.002500 -1.997500 -1.966250 -1.944375 -1.926875 -1.927500 -1.930625 -1.941875 -1.931875 -1.935000 -1.930000 -1.923750 -1.922500 -1.920625 -1.910625 -1.908750 -1.909375 -1.912500 -1.920000 -1.915000 -1.905000 -1.905625 -1.907500 -1.910625 -1.908750 -1.913125 -1.936250 -1.951875 -1.960000 -1.976250 -1.977500 -2.002500 -2.015625 -1.998125 -2.008750 -2.003750 -2.008750 -2.016875 -2.090625 -2.120000 -2.119375 -2.142500 -2.098125 -2.062500 -2.074375 -2.060000 -2.095625 -2.100000 -2.098125 -2.117500 -2.123125 -2.126250 -2.133125 -2.149375 -2.151250 -2.145625 -2.136875 -2.133125 -2.126250 -2.116250 -2.113750 -2.121875 -2.100000 -2.103750 -2.110625 -2.123125 -2.133125 -2.153125 -2.164375 -2.170000 -2.185000 -2.202500 -2.223750 -2.225000 -2.219375 -2.208125 -2.196250 -2.208750 -2.224375 -2.227500 -2.203750 -2.199375 -2.211875 -2.195625 -2.188750 -2.190625 -2.199375 -2.226875 -2.216875 -2.188750 -2.180000 -2.181250 -2.202500 -2.203125 -2.209375 -2.213750 -2.204375 -2.191250 -2.197500 -2.196875 -2.191250 -2.188750 -2.198750 -2.220000 -2.231875 -2.225625 -2.213125 -2.210625 -2.223750 -2.287500 -2.280000 -2.223750 -2.201875 -2.198125 -2.203750 -2.222500 -2.263125 -2.305000 -2.289375 -2.264375 -2.250625 -2.258750 -2.273750 -2.270000 -2.243750 -2.218125 -2.214375 -2.226250 -2.225000 -2.203125 -2.174375 -2.157500 -2.152500 -2.139375 -2.132500 -2.129375 -2.117500 -2.101875 -2.086250 -2.067500 -2.060625 -2.061875 -2.061250 -2.066250 -2.055000 -2.045625 -2.048750 -2.048125 -2.039375 -2.029375 -2.018125 -2.011875 -1.969375 -1.951250 -1.943125 -1.938750 -1.928750 -1.916250 -1.900625 -1.906875 -1.936875 -1.935000 -1.951250 -1.966250 -1.940625 -1.892500 -1.871875 -1.855625 -1.854375 -1.885625 -1.890000 -1.883125 -1.873750 -1.860625 -1.865625 -1.865000 -1.854375 -1.872500 -1.711875 -1.911250 -1.886875 -1.831875 -1.883750 -1.882308 -1.879091 -1.920000 -1.852500 -1.760000 -9999.000000 -9999.000000 -9999.000000 -9999.000000 -9999.000000 -9999.000000 -9999.000000 -9999.000000 -9999.000000 -9999.000000 -9999.000000 -9999.000000 -9999.000000 -9999.000000 -9999.000000 -9999.000000 -9999.000000 -9999.000000 -9999.000000 -9999.000000 -9999.000000 -9999.000000 -9999.000000 -9999.000000 -9999.000000 -9999.000000 -9999.000000
-1.957500 -1.963750 -1.951250 -1.946875 -1.965000 -1.963125 -1.963750 -1.965625 -1.970000 -1.970625 -1.981875 -1.968750 -1.960000 -1.974375 -1.973125 -1.965000 -1.966875 -1.968125 -1.969375 -1.961875 -1.948125 -1.948125 -1.948750 -1.956250 -1.950000 -1.949375 -1.947500 -1.948125 -1.952500 -1.957500 -1.956875 -1.950625 -1.954375 -1.948750 -1.966875 -1.954375 -1.950000 -1.951875 -1.949375 -1.938750 -1.937500 -1.938125 -1.991250 -2.012500 -2.036250 -2.044375 -1.996250 -1.966250 -1.948125 -1.936250 -1.940625 -1.948125 -1.939375 -1.945625 -1.930000 -1.936250 -1.941250 -1.933125 -1.925000 -1.916875 -1.920000 -1.912500 -1.916875 -1.915000 -1.911250 -1.918125 -1.911250 -1.921875 -1.927500 -1.922500 -1.938125 -1.948125 -1.971875 -1.991875 -1.993750 -2.005000 -2.013750 -1.978125 -1.981875 -1.983750 -1.967143 -1.985000 -2.072000 -2.125000 -2.065000 -2.021875 -2.020625 -2.018125 -2.026250 -2.037500 -2.055625 -2.073750 -2.086875 -2.106875 -2.124375 -2.130625 -2.131250 -2.144375 -2.148125 -2.139375 -2.136250 -2.131250 -2.126875 -2.111875 -2.108750 -2.116250 -2.105625 -2.106250 -2.118125 -2.131250 -2.136875 -2.157500 -2.169375 -2.172500 -2.180000 -2.186250 -2.204375 -2.214375 -2.216875 -2.209375 -2.193750 -2.210625 -2.218125 -2.215000 -2.201250 -2.204375 -2.207500 -2.195000 -2.215625 -2.226250 -2.206875 -2.208750 -2.208125 -2.195625 -2.188750 -2.190625 -2.194375 -2.191250 -2.187500 -2.195000 -2.194375 -2.188125 -2.193750 -2.191875 -2.190000 -2.190000 -2.197500 -2.205000 -2.215000 -2.211875 -2.217500 -2.233125 -2.303125 -2.284375 -2.236250 -2.224375 -2.216250 -2.209375 -2.211250 -2.225625 -2.268750 -2.315000 -2.289375 -2.259375 -2.262500 -2.282500 -2.289375 -2.258750 -2.231250 -2.216250 -2.206875 -2.206250 -2.191875 -2.167500 -2.151875 -2.128750 -2.112500 -2.101250 -2.093750 -2.083750 -2.083125 -2.069375 -2.060625 -2.046250 -2.038750 -2.037500 -2.036875 -2.036250 -2.031250 -2.022500 -2.018125 -2.025000 -2.018750 -2.029375 -2.015000 -1.996250 -1.947500 -1.928750 -1.931875 -1.935625 -1.934375 -1.926875 -1.937500 -1.974375 -2.016875 -2.001250 -1.952500 -1.896875 -1.876875 -1.869375 -1.870000 -1.870625 -1.878750 -1.891250 -1.900000 -1.894375 -1.886875 -1.866250 -1.869375 -1.851875 -1.855625 -1.891875 -1.867333 -1.910000 -1.890000 -1.807500 -1.840000 -9999.000000 -9999.000000 -9999.000000 -9999.000000 -9999.000000 -9999.000000 -9999.000000 -9999.000000 -9999.000000 -9999.000000 -9999.000000 -9999.000000 -9999.000000 -9999.000000 -9999.000000 -9999.000000 -9999.000000 -9999.000000 -9999.000000 -9999.000000 -9999.000000 -9999.000000 -9999.000000 -9999.000000 -9999.000000 -9999.000000 -9999.000000 -9999.000000 -9999.000000 -9999.000000 -9999.000000 -9999.000000
-1.961250 -1.959375 -1.943125 -1.919375 -1.936250 -1.970000 -1.961250 -1.921875 -1.905625 -1.920625 -1.975625 -1.972500 -1.950625 -1.965625 -1.957500 -1.958125 -1.960625 -1.958750 -1.955000 -1.946250 -1.946875 -1.943125 -1.946250 -1.960625 -1.954375 -1.950625 -1.961250 -1.952500 -1.953750 -1.970000 -1.983125 -1.963750 -1.956875 -1.970000 -1.973750 -1.959375 -1.976875 -1.957500 -1.958750 -1.963750 -1.955625 -1.963125 -2.004375 -2.054375 -2.078750 -2.085625 -2.040000 -1.992500 -1.989375 -1.953125 -1.961250 -1.979375 -1.980000 -1.970625 -1.961250 -1.966875 -1.943750 -1.938750 -1.947500 -1.932500 -1.941250 -1.941250 -1.941250 -1.942500 -1.941250 -1.934375 -1.940000 -1.918750 -1.931875 -1.946250 -1.968750 -1.968750 -1.984545 -1.985455 -2.013750 -2.034286 -2.020000 -1.930000 -9999.000000 -9999.000000 -9999.000000 -9999.000000 -9999.000000 -9999.000000 -2.014444 -2.008750 -2.023750 -2.018125 -2.039375 -2.035000 -2.053125 -2.068125 -2.083750 -2.108750 -2.125625 -2.134375 -2.143125 -2.146875 -2.153750 -2.145625 -2.139375 -2.131250 -2.131875 -2.116875 -2.116875 -2.116875 -2.111250 -2.109375 -2.118750 -2.131875 -2.137500 -2.143750 -2.155000 -2.171875 -2.171250 -2.181875 -2.198750 -2.207500 -2.212500 -2.217500 -2.191875 -2.204375 -2.208125 -2.206250 -2.201250 -2.211250 -2.203125 -2.197500 -2.243750 -2.289375 -2.223750 -2.213750 -2.218125 -2.208125 -2.192500 -2.180625 -2.176250 -2.173750 -2.180625 -2.193750 -2.195000 -2.190625 -2.195625 -2.196250 -2.195000 -2.195000 -2.201875 -2.207500 -2.208125 -2.213125 -2.233125 -2.276875 -2.318125 -2.246250 -2.247500 -2.259375 -2.243125 -2.226250 -2.237500 -2.245000 -2.301250 -2.322500 -2.290625 -2.275625 -2.281875 -2.275625 -2.247500 -2.228125 -2.218750 -2.203750 -2.180625 -2.161250 -2.138125 -2.119375 -2.098750 -2.085000 -2.074375 -2.078125 -2.073750 -2.070625 -2.071250 -2.056875 -2.041250 -2.028750 -2.021875 -2.015625 -2.013125 -2.023125 -2.010000 -2.005625 -2.001875 -1.993750 -2.000625 -2.043750 -2.040625 -2.016250 -1.973750 -1.939375 -1.961250 -1.996250 -1.999375 -2.001250 -2.015000 -2.015000 -1.992500 -1.911250 -1.870000 -1.884375 -1.880000 -1.866250 -1.883750 -1.888750 -1.884375 -1.897500 -1.895625 -1.904375 -1.851250 -1.908667 -1.881250 -1.844667 -1.858889 -1.900000 -9999.000000 -9999.000000 -9999.000000 -9999.000000 -9999.000000 -9999.000000 -9999.000000 -9999.000000 -9999.000000 -9999.000000 -9999.000000 -9999.000000 -9999.000000 -9999.000000 -9999.000000 -9999.000000 -9999.000000 -9999.000000 -9999.000000 -9999.000000 -9999.000000 -9999.000000 -9999.000000 -9999.000000 -9999.000000 -9999.000000 -9999.000000 -9999.000000 -9999.000000 -9999.000000 -9999.000000 -9999.000000 -9999.000000 -9999.000000 -9999.000000 -9999.000000 -9999.000000
-1.969375 -1.949375 -1.931250 -1.905000 -1.943750 -1.968125 -1.955000 -1.900000 -1.875000 -1.890625 -1.948125 -1.960000 -1.950000 -1.955625 -1.950625 -1.963125 -1.957500 -1.955000 -1.963750 -1.948125 -1.941250 -1.938750 -1.948125 -1.950000 -1.950625 -1.962500 -1.988750 -1.980000 -1.949375 -1.996250 -2.007500 -1.956250 -1.933125 -2.128125 -1.984375 -1.956875 -1.980000 -1.984375 -1.941875 -1.974667 -1.980000 -1.969167 -2.003000 -2.091250 -2.121250 -2.138750 -2.078750 -1.986250 -1.998750 -1.968750 -1.973750 -1.986250 -1.980000 -2.002500 -1.980000 -1.998750 -1.963750 -1.963750 -2.017500 -1.962500 -1.960000 -1.987500 -1.936250 -1.951250 -1.957143 -1.940000 -1.941429 -1.926000 -1.987500 -1.990000 -1.990000 -9999.000000 -9999.000000 -9999.000000 -9999.000000 -9999.000000 -9999.000000 -9999.000000 -9999.000000 -9999.000000 -9999.000000 -9999.000000 -9999.000000 -9999.000000 -2.030000 -2.016875 -2.006875 -2.021875 -2.036250 -2.038750 -2.053125 -2.062500 -2.081875 -2.111250 -2.128125 -2.140625 -2.151250 -2.153750 -2.165625 -2.170000 -2.148750 -2.144375 -2.143750 -2.136875 -2.126250 -2.119375 -2.111250 -2.108125 -2.118125 -2.133125 -2.143125 -2.147500 -2.156250 -2.171250 -2.171875 -2.180625 -2.198750 -2.222500 -2.220000 -2.226875 -2.201875 -2.211875 -2.212500 -2.207500 -2.216250 -2.212500 -2.206250 -2.205000 -2.242500 -2.283125 -2.228750 -2.219375 -2.226250 -2.223750 -2.204375 -2.186250 -2.183750 -2.176250 -2.189375 -2.210000 -2.208125 -2.205000 -2.210625 -2.208750 -2.210625 -2.215625 -2.217500 -2.217500 -2.208750 -2.225625 -2.262500 -2.276875 -2.274375 -2.236875 -2.240625 -2.241875 -2.245000 -2.248125 -2.256875 -2.287500 -2.323750 -2.324375 -2.285625 -2.286875 -2.276250 -2.240625 -2.216875 -2.203125 -2.176875 -2.138750 -2.122500 -2.110625 -2.098125 -2.091875 -2.080000 -2.074375 -2.063750 -2.065000 -2.059375 -2.057500 -2.055625 -2.041875 -2.028750 -2.015625 -2.008125 -2.005000 -1.996250 -1.996250 -1.993750 -1.999375 -2.000625 -2.005625 -2.020625 -2.080000 -2.087500 -2.064375 -2.037500 -1.962500 -1.989375 -2.028125 -2.013750 -1.975000 -1.952500 -1.929375 -1.898750 -1.875625 -1.883750 -1.822500 -1.895625 -1.875000 -1.888750 -1.901875 -1.756250 -1.916250 -1.902500 -1.916875 -1.916250 -1.885833 -1.846667 -9999.000000 -9999.000000 -9999.000000 -9999.000000 -9999.000000 -9999.000000 -9999.000000 -9999.000000 -9999.000000 -9999.000000 -9999.000000 -9999.000000 -9999.000000 -9999.000000 -9999.000000 -9999.000000 -9999.000000 -9999.000000 -9999.000000 -9999.000000 -9999.000000 -9999.000000 -9999.000000 -9999.000000 -9999.000000 -9999.000000 -9999.000000 -9999.000000 -9999.000000 -9999.000000 -9999.000000 -9999.000000 -9999.000000 -9999.000000 -9999.000000 -9999.000000 -9999.000000 -9999.000000 -9999.000000 -9999.000000
-1.970625 -1.942500 -1.957500 -1.943125 -1.945625 -1.991250 -1.990000 -1.928750 -1.880000 -1.905625 -1.968125 -1.956875 -1.953125 -1.947500 -1.955625 -1.978125 -1.976250 -1.981875 -1.973750 -1.964375 -1.979375 -1.974375 -2.011250 -1.993750 -1.996250 -1.977857 -1.959231 -1.990000 -1.995000 -2.011818 -2.018333 -1.942500 -1.959000 -1.976667 -2.002500 -1.971250 -1.971667 -1.977500 -1.880000 -9999.000000 -9999.000000 -9999.000000 -9999.000000 -9999.000000 -9999.000000 -9999.000000 -9999.000000 -9999.000000 -9999.000000 -9999.000000 -9999.000000 -9999.000000 -9999.000000 -9999.000000 -9999.000000 -9999.000000 -9999.000000 -9999.000000 -9999.000000 -9999.000000 -9999.000000 -9999.000000 -9999.000000 -9999.000000 -9999.000000 -9999.000000 -9999.000000 -9999.000000 -9999.000000 -9999.000000 -9999.000000 -9999.000000 -9999.000000 -9999.000000 -9999.000000 -9999.000000 -9999.000000 -9999.000000 -9999.000000 -9999.000000 -9999.000000 -9999.000000 -9999.000000 -9999.000000 -9999.000000 -1.982000 -2.000625 -2.035625 -2.050625 -2.050000 -2.064375 -2.078125 -2.089375 -2.119375 -2.131875 -2.146875 -2.161250 -2.178750 -2.180625 -2.179375 -2.165000 -2.155000 -2.151250 -2.145000 -2.131875 -2.118750 -2.111875 -2.111875 -2.117500 -2.133125 -2.144375 -2.150625 -2.155625 -2.164375 -2.177500 -2.183750 -2.198750 -2.220625 -2.234375 -2.221875 -2.205000 -2.214375 -2.215000 -2.220000 -2.223750 -2.215625 -2.209375 -2.205625 -2.240625 -2.248125 -2.220625 -2.228125 -2.239375 -2.233125 -2.202500 -2.206875 -2.204375 -2.205625 -2.213125 -2.228125 -2.233125 -2.223125 -2.223125 -2.223750 -2.222500 -2.218750 -2.216875 -2.205625 -2.221250 -2.260625 -2.246875 -2.255625 -2.252500 -2.244375 -2.244375 -2.261250 -2.264375 -2.256250 -2.268125 -2.301875 -2.308750 -2.299375 -2.266250 -2.253750 -2.220625 -2.202500 -2.183750 -2.158750 -2.141250 -2.115625 -2.100625 -2.093750 -2.088750 -2.074375 -2.070625 -2.058125 -2.049375 -2.047500 -2.043125 -2.045000 -2.043750 -2.036875 -2.029375 -2.019375 -2.018125 -2.018125 -2.018750 -2.013750 -2.018750 -2.022500 -2.018125 -2.012500 -2.005000 -2.053750 -2.078125 -2.045000 -2.011875 -1.991875 -1.981875 -1.967500 -1.953750 -1.945000 -1.915000 -1.938125 -1.900000 -1.889375 -1.897500 -1.815000 -1.908750 -1.890000 -1.890625 -1.900000 -1.902500 -1.972500 -1.889375 -1.890000 -1.865000 -9999.000000 -9999.000000 -9999.000000 -9999.000000 -9999.000000 -9999.000000 -9999.000000 -9999.000000 -9999.000000 -9999.000000 -9999.000000 -9999.000000 -9999.000000 -9999.000000 -9999.000000 -9999.000000 -9999.000000 -9999.000000 -9999.000000 -9999.000000 -9999.000000 -9999.000000 -9999.000000 -9999.000000 -9999.000000 -9999.000000 -9999.000000 -9999.000000 -9999.000000 -9999.000000 -9999.000000 -9999.000000 -9999.000000 -9999.000000 -9999.000000 -9999.000000 -9999.000000 -9999.000000 -9999.000000 -9999.000000 -9999.000000 -9999.000000
-1.997500 -1.996250 -1.989375 -1.983333 -1.983077 -2.022500 -2.030833 -1.991667 -1.952727 -1.932500 -1.981667 -1.995455 -1.992727 -1.968889 -1.976250 -1.998750 -2.028750 -2.013750 -2.041250 -1.981250 -1.961250 -1.981667 -2.030000 -1.980000 -9999.000000 -9999.000000 -9999.000000 -9999.000000 -9999.000000 -9999.000000 -9999.000000 -9999.000000 -9999.000000 -9999.000000 -9999.000000 -9999.000000 -9999.000000 -9999.000000 -9999.000000 -9999.000000 -9999.000000 -9999.000000 -9999.000000 -9999.000000 -9999.000000 -9999.000000 -9999.000000 -9999.000000 -9999.000000 -9999.000000 -9999.000000 -9999.000000 -9999.000000 -9999.000000 -9999.000000 -9999.000000 -9999.000000 -9999.000000 -9999.000000 -9999.000000 -9999.000000 -9999.000000 -9999.000000 -9999.000000 -9999.000000 -9999.000000 -9999.000000 -9999.000000 -9999.000000 -9999.000000 -9999.000000 -9999.000000 -9999.000000 -9999.000000 -9999.000000 -9999.000000 -9999.000000 -9999.000000 -9999.000000 -9999.000000 -9999.000000 -9999.000000 -9999.000000 -9999.000000 -9999.000000 -1.963333 -1.996875 -2.030000 -2.075625 -2.083125 -2.088125 -2.094375 -2.103750 -2.138750 -2.147500 -2.158125 -2.171875 -2.197500 -2.191250 -2.188750 -2.183750 -2.165625 -2.153750 -2.148125 -2.136875 -2.126875 -2.128125 -2.130625 -2.121250 -2.126875 -2.132500 -2.140000 -2.145000 -2.157500 -2.176250 -2.181250 -2.191875 -2.230625 -2.256250 -2.233750 -2.206875 -2.208125 -2.217500 -2.228125 -2.225000 -2.231250 -2.228125 -2.221250 -2.229375 -2.233750 -2.234375 -2.242500 -2.250625 -2.245000 -2.247500 -2.227500 -2.219375 -2.231250 -2.238750 -2.235625 -2.248750 -2.236875 -2.228750 -2.228750 -2.230625 -2.232500 -2.217500 -2.212500 -2.245000 -2.231250 -2.226250 -2.231250 -2.216875 -2.230625 -2.241250 -2.245000 -2.253125 -2.253750 -2.280000 -2.280000 -2.303750 -2.269375 -2.243125 -2.215000 -2.191875 -2.165000 -2.150000 -2.133125 -2.118125 -2.108750 -2.091875 -2.078750 -2.073750 -2.066250 -2.056250 -2.043125 -2.034375 -2.039375 -2.046875 -2.054375 -2.061250 -2.061875 -2.057500 -2.050000 -2.033750 -2.014375 -2.003750 -1.991250 -1.991875 -1.986875 -1.978750 -1.998750 -2.022500 -2.042500 -2.043750 -2.023750 -2.013750 -2.001875 -1.992500 -1.955625 -1.944375 -1.941875 -1.913125 -1.938750 -1.916875 -1.900625 -1.895000 -1.900000 -1.918125 -1.908750 -1.892500 -1.902500 -1.907143 -2.003750 -1.885000 -9999.000000 -9999.000000 -9999.000000 -9999.000000 -9999.000000 -9999.000000 -9999.000000 -9999.000000 -9999.000000 -9999.000000 -9999.000000 -9999.000000 -9999.000000 -9999.000000 -9999.000000 -9999.000000 -9999.000000 -9999.000000 -9999.000000 -9999.000000 -9999.000000 -9999.000000 -9999.000000 -9999.000000 -9999.000000 -9999.000000 -9999.000000 -9999.000000 -9999.000000 -9999.000000 -9999.000000 -9999.000000 -9999.000000 -9999.000000 -9999.000000 -9999.000000 -9999.000000 -9999.000000 -9999.000000 -9999.000000 -9999.000000 -9999.000000 -9999.000000 -9999.000000
-9999.000000 -9999.000000 -9999.000000 -9999.000000 -9999.000000 -9999.000000 -9999.000000 -9999.000000 -9999.000000 -9999.000000 -9999.000000 -9999.000000 -9999.000000 -9999.000000 -9999.000000 -9999.000000 -9999.000000 -9999.000000 -9999.000000 -9999.000000 -9999.000000 -9999.000000 -9999.000000 -9999.000000 -9999.000000 -9999.000000 -9999.000000 -9999.000000 -9999.000000 -9999.000000 -9999.000000 -9999.000000 -9999.000000 -9999.000000 -9999.000000 -9999.000000 -9999.000000 -9999.000000 -9999.000000 -9999.000000 -9999.000000 -9999.000000 -9999.000000 -9999.000000 -9999.000000 -9999.000000 -9999.000000 -9999.000000 -9999.000000 -9999.000000 -9999.000000 -9999.000000 -9999.000000 -9999.000000 -9999.000000 -9999.000000 -9999.000000 -9999.000000 -9999.000000 -9999.000000 -9999.000000 -9999.000000 -9999.000000 -9999.000000 -9999.000000 -9999.000000 -9999.000000 -9999.000000 -9999.000000 -9999.000000 -9999.000000 -9999.000000 -9999.000000 -9999.000000 -9999.000000 -9999.000000 -9999.000000 -9999.000000 -9999.000000 -9999.000000 -9999.000000 -9999.000000 -9999.000000 -9999.000000 -9999.000000 -9999.000000 -2.007778 -2.043750 -2.100625 -2.134375 -2.125625 -2.125625 -2.137500 -2.161250 -2.176250 -2.185000 -2.201875 -2.221250 -2.218125 -2.213125 -2.204375 -2.176875 -2.161875 -2.151875 -2.138750 -2.130625 -2.130625 -2.125000 -2.119375 -2.118125 -2.120000 -2.129375 -2.132500 -2.143750 -2.154375 -2.171250 -2.188750 -2.207500 -2.242500 -2.246250 -2.226875 -2.210625 -2.226875 -2.231875 -2.225625 -2.238125 -2.246875 -2.245625 -2.246875 -2.248750 -2.253125 -2.254375 -2.263125 -2.281250 -2.276250 -2.248750 -2.234375 -2.222500 -2.210000 -2.206875 -2.208125 -2.217500 -2.211875 -2.207500 -2.206250 -2.206875 -2.191875 -2.219375 -2.227500 -2.206875 -2.216250 -2.220000 -2.230625 -2.251250 -2.256250 -2.260625 -2.281250 -2.255625 -2.280625 -2.278750 -2.289375 -2.248125 -2.210000 -2.185000 -2.164375 -2.147500 -2.133750 -2.122500 -2.106250 -2.091875 -2.077500 -2.070000 -2.063125 -2.065000 -2.060000 -2.050625 -2.043125 -2.041875 -2.046875 -2.046875 -2.042500 -2.031250 -2.023750 -2.009375 -1.995625 -1.981250 -1.973750 -1.991875 -2.015625 -2.026875 -1.979375 -2.021875 -2.043750 -2.044375 -2.046250 -2.030000 -2.028750 -2.022500 -2.008125 -1.956875 -1.953125 -1.948125 -1.940000 -1.940625 -1.932500 -1.920000 -1.909375 -1.917500 -1.922500 -1.928125 -1.915625 -1.875556 -1.905000 -9999.000000 -9999.000000 -9999.000000 -9999.000000 -9999.000000 -9999.000000 -9999.000000 -9999.000000 -9999.000000 -9999.000000 -9999.000000 -9999.000000 -9999.000000 -9999.000000 -9999.000000 -9999.000000 -9999.000000 -9999.000000 -9999.000000 -9999.000000 -9999.000000 -9999.000000 -9999.000000 -9999.000000 -9999.000000 -9999.000000 -9999.000000 -9999.000000 -9999.000000 -9999.000000 -9999.000000 -9999.000000 -9999.000000 -9999.000000 -9999.000000 -9999.000000 -9999.000000 -9999.000000 -9999.000000 -9999.000000 -9999.000000 -9999.000000 -9999.000000 -9999.000000 -9999.000000 -9999.000000
-9999.000000 -9999.000000 -9999.000000 -9999.000000 -9999.000000 -9999.000000 -9999.000000 -9999.000000 -9999.000000 -9999.000000 -9999.000000 -9999.000000 -9999.000000 -9999.000000 -9999.000000 -9999.000000 -9999.000000 -9999.000000 -9999.000000 -9999.000000 -9999.000000 -9999.000000 -9999.000000 -9999.000000 -9999.000000 -9999.000000 -9999.000000 -9999.000000 -9999.000000 -9999.000000 -9999.000000 -9999.000000 -9999.000000 -9999.000000 -9999.000000 -9999.000000 -9999.000000 -9999.000000 -9999.000000 -9999.000000 -9999.000000 -9999.000000 -9999.000000 -9999.000000 -9999.000000 -9999.000000 -9999.000000 -9999.000000 -9999.000000 -9999.000000 -9999.000000 -9999.000000 -9999.000000 -9999.000000 -9999.000000 -9999.000000 -9999.000000 -9999.000000 -9999.000000 -9999.000000 -9999.000000 -9999.000000 -9999.000000 -9999.000000 -9999.000000 -9999.000000 -9999.000000 -9999.000000 -9999.000000 -9999.000000 -9999.000000 -9999.000000 -9999.000000 -9999.000000 -9999.000000 -9999.000000 -9999.000000 -9999.000000 -9999.000000 -9999.000000 -9999.000000 -9999.000000 -9999.000000 -9999.000000 -9999.000000 -9999.000000 -2.050000 -2.042000 -2.128125 -2.177500 -2.166875 -2.170625 -2.176875 -2.201875 -2.203750 -2.220000 -2.254375 -2.274375 -2.258125 -2.241250 -2.221250 -2.201875 -2.180625 -2.158750 -2.143750 -2.130625 -2.123750 -2.119375 -2.116875 -2.108125 -2.106875 -2.114375 -2.120000 -2.126875 -2.136875 -2.158750 -2.184375 -2.198750 -2.210625 -2.223750 -2.230000 -2.221250 -2.228125 -2.241875 -2.244375 -2.255000 -2.255625 -2.262500 -2.267500 -2.257500 -2.269375 -2.276250 -2.276250 -2.299375 -2.280625 -2.220000 -2.216250 -2.207500 -2.204375 -2.204375 -2.200625 -2.201250 -2.202500 -2.199375 -2.197500 -2.195000 -2.205625 -2.228750 -2.205625 -2.206250 -2.213125 -2.226875 -2.258125 -2.268750 -2.276875 -2.249375 -2.229375 -2.150000 -2.236875 -2.288750 -2.283750 -2.226875 -2.188125 -2.172500 -2.147500 -2.132500 -2.123125 -2.115000 -2.101250 -2.087500 -2.073750 -2.069375 -2.068125 -2.063750 -2.053750 -2.033750 -2.021250 -2.010000 -2.015000 -2.018750 -2.024375 -2.019375 -2.012500 -2.005000 -2.006250 -2.014375 -2.025625 -2.044375 -2.050000 -2.055000 -2.030625 -2.030000 -2.041250 -2.077500 -2.057500 -2.049375 -2.041250 -2.035625 -2.020625 -1.967500 -1.958750 -1.960625 -1.948750 -1.966250 -1.953750 -1.935000 -1.930000 -1.935000 -1.937500 -1.915556 -1.940000 -9999.000000 -9999.000000 -9999.000000 -9999.000000 -9999.000000 -9999.000000 -9999.000000 -9999.000000 -9999.000000 -9999.000000 -9999.000000 -9999.000000 -9999.000000 -9999.000000 -9999.000000 -9999.000000 -9999.000000 -9999.000000 -9999.000000 -9999.000000 -9999.000000 -9999.000000 -9999.000000 -9999.000000 -9999.000000 -9999.000000 -9999.000000 -9999.000000 -9999.000000 -9999.000000 -9999.000000 -9999.000000 -9999.000000 -9999.000000 -9999.000000 -9999.000000 -9999.000000 -9999.000000 -9999.000000 -9999.000000 -9999.000000 -9999.000000 -9999.000000 -9999.000000 -9999.000000 -9999.000000 -9999.000000 -9999.000000
-9999.000000 -9999.000000 -9999.000000 -9999.000000 -9999.000000 -9999.000000 -9999.000000 -9999.000000 -9999.000000 -9999.000000 -9999.000000 -9999.000000 -9999.000000 -9999.000000 -9999.000000 -9999.000000 -9999.000000 -9999.000000 -9999.000000 -9999.000000 -9999.000000 -9999.000000 -9999.000000 -9999.000000 -9999.000000 -9999.000000 -9999.000000 -9999.000000 -9999.000000 -9999.000000 -9999.000000 -9999.000000 -9999.000000 -9999.000000 -9999.000000 -9999.000000 -9999.000000 -9999.000000 -9999.000000 -9999.000000 -9999.000000 -9999.000000 -9999.000000 -9999.000000 -9999.000000 -9999.000000 -9999.000000 -9999.000000 -9999.000000 -9999.000000 -9999.000000 -9999.000000 -9999.000000 -9999.000000 -9999.000000 -9999.000000 -9999.000000 -9999.000000 -9999.000000 -9999.000000 -9999.000000 -9999.000000 -9999.000000 -9999.000000 -9999.000000 -9999.000000 -9999.000000 -9999.000000 -9999.000000 -9999.000000 -9999.000000 -9999.000000 -9999.000000 -9999.000000 -9999.000000 -9999.000000 -9999.000000 -9999.000000 -9999.000000 -9999.000000 -9999.000000 -9999.000000 -9999.000000 -9999.000000 -9999.000000 -9999.000000 -9999.000000 -1.961250 -2.136875 -2.185625 -2.208750 -2.233125 -2.237500 -2.230625 -2.237500 -2.251875 -2.272500 -2.289375 -2.286250 -2.260625 -2.231875 -2.208750 -2.189375 -2.160000 -2.141875 -2.131875 -2.122500 -2.116250 -2.105000 -2.095625 -2.095625 -2.103750 -2.113125 -2.122500 -2.131250 -2.141250 -2.176875 -2.183125 -2.193750 -2.203125 -2.226250 -2.235000 -2.218750 -2.238750 -2.247500 -2.260000 -2.273750 -2.283125 -2.285000 -2.283750 -2.286250 -2.283750 -2.277500 -2.290625 -2.256875 -2.195000 -2.199375 -2.198750 -2.201250 -2.199375 -2.196250 -2.192500 -2.193750 -2.192500 -2.188750 -2.193750 -2.221250 -2.203750 -2.196250 -2.202500 -2.211250 -2.248125 -2.253750 -2.252500 -2.246875 -2.235000 -2.250000 -2.255625 -2.276250 -2.291250 -2.258125 -2.196250 -2.167500 -2.151250 -2.136250 -2.132500 -2.133125 -2.124375 -2.103125 -2.081250 -2.055625 -2.042500 -2.038125 -2.040625 -2.036250 -2.021250 -2.013750 -2.010000 -2.010625 -2.020625 -2.028750 -2.039375 -2.036875 -2.048125 -2.061875 -2.036875 -2.046875 -2.044375 -2.026875 -2.026250 -2.048125 -2.036250 -2.036250 -2.039375 -2.054375 -2.070625 -2.068750 -2.056250 -2.047500 -1.995000 -1.961875 -1.961250 -1.955000 -1.951250 -1.980000 -1.948750 -1.954667 -1.974444 -1.955000 -9999.000000 -9999.000000 -9999.000000 -9999.000000 -9999.000000 -9999.000000 -9999.000000 -9999.000000 -9999.000000 -9999.000000 -9999.000000 -9999.000000 -9999.000000 -9999.000000 -9999.000000 -9999.000000 -9999.000000 -9999.000000 -9999.000000 -9999.000000 -9999.000000 -9999.000000 -9999.000000 -9999.000000 -9999.000000 -9999.000000 -9999.000000 -9999.000000 -9999.000000 -9999.000000 -9999.000000 -9999.000000 -9999.000000 -9999.000000 -9999.000000 -9999.000000 -9999.000000 -9999.000000 -9999.000000 -9999.000000 -9999.000000 -9999.000000 -9999.000000 -9999.000000 -9999.000000 -9999.000000 -9999.000000 -9999.000000 -9999.000000 -9999.000000
-9999.000000 -9999.000000 -9999.000000 -9999.000000 -9999.000000 -9999.000000 -9999.000000 -9999.000000 -9999.000000 -9999.000000 -9999.000000 -9999.000000 -9999.000000 -9999.000000 -9999.000000 -9999.000000 -9999.000000 -9999.000000 -9999.000000 -9999.000000 -9999.000000 -9999.000000 -9999.000000 -9999.000000 -9999.000000 -9999.000000 -9999.000000 -9999.000000 -9999.000000 -9999.000000 -9999.000000 -9999.000000 -9999.000000 -9999.000000 -9999.000000 -9999.000000 -9999.000000 -9999.000000 -9999.000000 -9999.000000 -9999.000000 -9999.000000 -9999.000000 -9999.000000 -9999.000000 -9999.000000 -9999.000000 -9999.000000 -9999.000000 -9999.000000 -9999.000000 -9999.000000 -9999.000000 -9999.000000 -9999.000000 -9999.000000 -9999.000000 -9999.000000 -9999.000000 -9999.000000 -9999.000000 -9999.000000 -9999.000000 -9999.000000 -9999.000000 -9999.000000 -9999.000000 -9999.000000 -9999.000000 -9999.000000 -9999.000000 -9999.000000 -9999.000000 -9999.000000 -9999.000000 -9999.000000 -9999.000000 -9999.000000 -9999.000000 -9999.000000 -9999.000000 -9999.000000 -9999.000000 -9999.000000 -9999.000000 -9999.000000 -9999.000000 -2.150000 -2.170667 -2.211250 -2.265000 -2.307500 -2.313125 -2.280625 -2.276250 -2.288125 -2.298750 -2.305000 -2.303125 -2.280000 -2.235000 -2.198125 -2.175625 -2.148750 -2.133750 -2.124375 -2.118750 -2.113750 -2.101875 -2.092500 -2.082500 -2.081875 -2.095000 -2.120000 -2.130000 -2.133125 -2.156250 -2.178750 -2.184375 -2.196875 -2.224375 -2.249375 -2.222500 -2.218750 -2.246875 -2.275000 -2.291250 -2.300000 -2.309375 -2.291250 -2.286875 -2.281875 -2.280000 -2.282500 -2.211250 -2.190000 -2.191250 -2.191875 -2.193125 -2.195000 -2.194375 -2.195625 -2.188750 -2.189375 -2.185625 -2.215625 -2.208125 -2.194375 -2.190625 -2.205000 -2.225000 -2.250000 -2.245000 -2.241875 -2.232500 -2.240000 -2.277500 -2.276250 -2.271250 -2.273750 -2.215625 -2.177500 -2.157500 -2.146250 -2.133750 -2.135000 -2.125625 -2.106875 -2.078750 -2.050000 -2.035625 -2.030000 -2.035625 -2.048750 -2.038125 -2.028750 -2.020625 -2.010000 -2.010000 -2.038125 -2.026250 -2.094375 -2.075625 -2.070000 -2.076875 -2.069375 -2.039375 -2.044375 -2.048125 -2.041875 -2.037500 -2.031250 -2.025000 -2.023125 -2.032500 -2.096875 -2.096875 -2.091250 -2.094375 -2.065625 -1.979375 -1.986250 -1.983750 -1.992500 -2.053077 -1.934286 -1.940000 -9999.000000 -9999.000000 -9999.000000 -9999.000000 -9999.000000 -9999.000000 -9999.000000 -9999.000000 -9999.000000 -9999.000000 -9999.000000 -9999.000000 -9999.000000 -9999.000000 -9999.000000 -9999.000000 -9999.000000 -9999.000000 -9999.000000 -9999.000000 -9999.000000 -9999.000000 -9999.000000 -9999.000000 -9999.000000 -9999.000000 -9999.000000 -9999.000000 -9999.000000 -9999.000000 -9999.000000 -9999.000000 -9999.000000 -9999.000000 -9999.000000 -9999.000000 -9999.000000 -9999.000000 -9999.000000 -9999.000000 -9999.000000 -9999.000000 -9999.000000 -9999.000000 -9999.000000 -9999.000000 -9999.000000 -9999.000000 -9999.000000 -9999.000000 -9999.000000 -9999.000000
-9999.000000 -9999.000000 -9999.000000 -9999.000000 -9999.000000 -9999.000000 -9999.000000 -9999.000000 -9999.000000 -9999.000000 -9999.000000 -9999.000000 -9999.000000 -9999.000000 -9999.000000 -9999.000000 -9999.000000 -9999.000000 -9999.000000 -9999.000000 -9999.000000 -9999.000000 -9999.000000 -9999.000000 -9999.000000 -9999.000000 -9999.000000 -9999.000000 -9999.000000 -9999.000000 -9999.000000 -9999.000000 -9999.000000 -9999.000000 -9999.000000 -9999.000000 -9999.000000 -9999.000000 -9999.000000 -9999.000000 -9999.000000 -9999.000000 -9999.000000 -9999.000000 -9999.000000 -9999.000000 -9999.000000 -9999.000000 -9999.000000 -9999.000000 -9999.000000 -9999.000000 -9999.000000 -9999.000000 -9999.000000 -9999.000000 -9999.000000 -9999.000000 -9999.000000 -9999.000000 -9999.000000 -9999.000000 -9999.000000 -9999.000000 -9999.000000 -9999.000000 -9999.000000 -9999.000000 -9999.000000 -9999.000000 -9999.000000 -9999.000000 -9999.000000 -9999.000000 -9999.000000 -9999.000000 -9999.000000 -9999.000000 -9999.000000 -9999.000000 -9999.000000 -9999.000000 -9999.000000 -9999.000000 -9999.000000 -9999.000000 -9999.000000 -9999.000000 -2.216667 -2.234375 -2.313125 -2.339375 -2.370625 -2.340625 -2.311250 -2.314375 -2.313750 -2.315625 -2.305000 -2.295625 -2.235625 -2.193125 -2.166875 -2.151875 -2.131250 -2.118750 -2.111875 -2.108125 -2.093125 -2.093125 -2.085000 -2.085625 -2.086875 -2.097500 -2.115625 -2.130000 -2.138125 -2.178750 -2.187500 -2.200625 -2.224375 -2.244375 -2.246875 -2.203750 -2.260625 -2.291875 -2.282500 -2.296875 -2.310000 -2.296250 -2.290000 -2.281875 -2.280000 -2.268750 -2.195000 -2.190000 -2.188750 -2.189375 -2.191875 -2.185625 -2.179375 -2.178125 -2.180000 -2.186250 -2.194375 -2.221875 -2.199375 -2.189375 -2.181250 -2.207500 -2.242500 -2.258125 -2.263750 -2.261875 -2.261250 -2.287500 -2.306875 -2.300000 -2.268125 -2.246250 -2.205000 -2.174375 -2.155625 -2.143750 -2.128125 -2.116250 -2.101250 -2.078125 -2.064375 -2.045625 -2.036875 -2.039375 -2.055625 -2.056250 -2.037500 -2.034375 -2.049375 -2.055000 -2.058125 -2.078125 -2.084375 -2.103125 -2.078125 -2.067500 -2.070625 -2.050625 -2.033125 -2.028125 -2.031250 -2.018125 -2.030000 -2.030000 -2.031875 -2.025000 -2.058125 -2.118125 -2.145000 -2.143750 -2.077500 -2.146875 -2.002857 -2.012727 -1.993333 -1.980000 -9999.000000 -9999.000000 -9999.000000 -9999.000000 -9999.000000 -9999.000000 -9999.000000 -9999.000000 -9999.000000 -9999.000000 -9999.000000 -9999.000000 -9999.000000 -9999.000000 -9999.000000 -9999.000000 -9999.000000 -9999.000000 -9999.000000 -9999.000000 -9999.000000 -9999.000000 -9999.000000 -9999.000000 -9999.000000 -9999.000000 -9999.000000 -9999.000000 -9999.000000 -9999.000000 -9999.000000 -9999.000000 -9999.000000 -9999.000000 -9999.000000 -9999.000000 -9999.000000 -9999.000000 -9999.000000 -9999.000000 -9999.000000 -9999.000000 -9999.000000 -9999.000000 -9999.000000 -9999.000000 -9999.000000 -9999.000000 -9999.000000 -9999.000000 -9999.000000 -9999.000000 -9999.000000 -9999.000000 -9999.000000
-9999.000000 -9999.000000 -9999.000000 -9999.000000 -9999.000000 -9999.000000 -9999.000000 -9999.000000 -9999.000000 -9999.000000 -9999.000000 -9999.000000 -9999.000000 -9999.000000 -9999.000000 -9999.000000 -9999.000000 -9999.000000 -9999.000000 -9999.000000 -9999.000000 -9999.000000 -9999.000000 -9999.000000 -9999.000000 -9999.000000 -9999.000000 -9999.000000 -9999.000000 -9999.000000 -9999.000000 -9999.000000 -9999.000000 -9999.000000 -9999.000000 -9999.000000 -9999.000000 -9999.000000 -9999.000000 -9999.000000 -9999.000000 -9999.000000 -9999.000000 -9999.000000 -9999.000000 -9999.000000 -9999.000000 -9999.000000 -9999.000000 -9999.000000 -9999.000000 -9999.000000 -9999.000000 -9999.000000 -9999.000000 -9999.000000 -9999.000000 -9999.000000 -9999.000000 -9999.000000 -9999.000000 -9999.000000 -9999.000000 -9999.000000 -9999.000000 -9999.000000 -9999.000000 -9999.000000 -9999.000000 -9999.000000 -9999.000000 -9999.000000 -9999.000000 -9999.000000 -9999.000000 -9999.000000 -9999.000000 -9999.000000 -9999.000000 -9999.000000 -9999.000000 -9999.000000 -9999.000000 -9999.000000 -9999.000000 -9999.000000 -9999.000000 -9999.000000 -2.220000 -2.239375 -2.311250 -2.343750 -2.373750 -2.353125 -2.323750 -2.324375 -2.308125 -2.304375 -2.301250 -2.262500 -2.212500 -2.179375 -2.160625 -2.149375 -2.130625 -2.116250 -2.108125 -2.101250 -2.093125 -2.096250 -2.090000 -2.090000 -2.094375 -2.093750 -2.101250 -2.097500 -2.116250 -2.170625 -2.190000 -2.203125 -2.213750 -2.241250 -2.260625 -2.223125 -2.234375 -2.276250 -2.288750 -2.293125 -2.305000 -2.298750 -2.290000 -2.284375 -2.261875 -2.205000 -2.186875 -2.190000 -2.190000 -2.191875 -2.186875 -2.183125 -2.173125 -2.175625 -2.176875 -2.180625 -2.210000 -2.206250 -2.192500 -2.191875 -2.191250 -2.241250 -2.297500 -2.350625 -2.377500 -2.341875 -2.320000 -2.334375 -2.345625 -2.334375 -2.266875 -2.203125 -2.188750 -2.175625 -2.164375 -2.143750 -2.111250 -2.093750 -2.085625 -2.073750 -2.062500 -2.052500 -2.044375 -2.081875 -2.132500 -2.078125 -2.071875 -2.068125 -2.058750 -2.070000 -2.061250 -2.075000 -2.091875 -2.093750 -2.078125 -2.074375 -2.066250 -2.050000 -2.044375 -2.033750 -2.031250 -2.034375 -2.032143 -2.047500 -2.038125 -2.042500 -2.041250 -2.125000 -2.195625 -2.180000 -1.980000 -2.146667 -9999.000000 -9999.000000 -9999.000000 -9999.000000 -9999.000000 -9999.000000 -9999.000000 -9999.000000 -9999.000000 -9999.000000 -9999.000000 -9999.000000 -9999.000000 -9999.000000 -9999.000000 -9999.000000 -9999.000000 -9999.000000 -9999.000000 -9999.000000 -9999.000000 -9999.000000 -9999.000000 -9999.000000 -9999.000000 -9999.000000 -9999.000000 -9999.000000 -9999.000000 -9999.000000 -9999.000000 -9999.000000 -9999.000000 -9999.000000 -9999.000000 -9999.000000 -9999.000000 -9999.000000 -9999.000000 -9999.000000 -9999.000000 -9999.000000 -9999.000000 -9999.000000 -9999.000000 -9999.000000 -9999.000000 -9999.000000 -9999.000000 -9999.000000 -9999.000000 -9999.000000 -9999.000000 -9999.000000 -9999.000000 -9999.000000 -9999.000000 -9999.000000 -9999.000000
-9999.000000 -9999.000000 -9999.000000 -9999.000000 -9999.000000 -9999.000000 -9999.000000 -9999.000000 -9999.000000 -9999.000000 -9999.000000 -9999.000000 -9999.000000 -9999.000000 -9999.000000 -9999.000000 -9999.000000 -9999.000000 -9999.000000 -9999.000000 -9999.000000 -9999.000000 -9999.000000 -9999.000000 -9999.000000 -9999.000000 -9999.000000 -9999.000000 -9999.000000 -9999.000000 -9999.000000 -9999.000000 -9999.000000 -9999.000000 -9999.000000 -9999.000000 -9999.000000 -9999.000000 -9999.000000 -9999.000000 -9999.000000 -9999.000000 -9999.000000 -9999.000000 -9999.000000 -9999.000000 -9999.000000 -9999.000000 -9999.000000 -9999.000000 -9999.000000 -9999.000000 -9999.000000 -9999.000000 -9999.000000 -9999.000000 -9999.000000 -9999.000000 -9999.000000 -9999.000000 -9999.000000 -9999.000000 -9999.000000 -9999.000000 -9999.000000 -9999.000000 -9999.000000 -9999.000000 -9999.000000 -9999.000000 -9999.000000 -9999.000000 -9999.000000 -9999.000000 -9999.000000 -9999.000000 -9999.000000 -9999.000000 -9999.000000 -9999.000000 -9999.000000 -9999.000000 -9999.000000 -9999.000000 -9999.000000 -9999.000000 -9999.000000 -9999.000000 -9999.000000 -2.250769 -2.296250 -2.306875 -2.333125 -2.321250 -2.303750 -2.301250 -2.291250 -2.283750 -2.270000 -2.227500 -2.201250 -2.171250 -2.153750 -2.146250 -2.128125 -2.115625 -2.104375 -2.098750 -2.100625 -2.100000 -2.100000 -2.096250 -2.088125 -2.089375 -2.091875 -2.090625 -2.080000 -2.096875 -2.181875 -2.204375 -2.217500 -2.240000 -2.253750 -2.236875 -2.230000 -2.260625 -2.281875 -2.290625 -2.300000 -2.300000 -2.261250 -2.192500 -2.149375 -2.150625 -2.150625 -2.171875 -2.186875 -2.183125 -2.178750 -2.176875 -2.175000 -2.182500 -2.181250 -2.180625 -2.198125 -2.202500 -2.200625 -2.190000 -2.220625 -2.316250 -2.385000 -2.430000 -2.432500 -2.383125 -2.331250 -2.335625 -2.343750 -2.295000 -2.236875 -2.196250 -2.180000 -2.177500 -2.169375 -2.131250 -2.107500 -2.086250 -2.072500 -2.068750 -2.058125 -2.061250 -2.065625 -2.098125 -2.206875 -2.119375 -2.095625 -2.097500 -2.080625 -2.078750 -2.068125 -2.071250 -2.076250 -2.120000 -2.088125 -2.085625 -2.075625 -2.068125 -2.057500 -2.053750 -2.039375 -2.060625 -2.038750 -2.091875 -2.070000 -2.050667 -2.065000 -2.112500 -2.180000 -9999.000000 -9999.000000 -9999.000000 -9999.000000 -9999.000000 -9999.000000 -9999.000000 -9999.000000 -9999.000000 -9999.000000 -9999.000000 -9999.000000 -9999.000000 -9999.000000 -9999.000000 -9999.000000 -9999.000000 -9999.000000 -9999.000000 -9999.000000 -9999.000000 -9999.000000 -9999.000000 -9999.000000 -9999.000000 -9999.000000 -9999.000000 -9999.000000 -9999.000000 -9999.000000 -9999.000000 -9999.000000 -9999.000000 -9999.000000 -9999.000000 -9999.000000 -9999.000000 -9999.000000 -9999.000000 -9999.000000 -9999.000000 -9999.000000 -9999.000000 -9999.000000 -9999.000000 -9999.000000 -9999.000000 -9999.000000 -9999.000000 -9999.000000 -9999.000000 -9999.000000 -9999.000000 -9999.000000 -9999.000000 -9999.000000 -9999.000000 -9999.000000 -9999.000000 -9999.000000 -9999.000000 -9999.000000
-9999.000000 -9999.000000 -9999.000000 -9999.000000 -9999.000000 -9999.000000 -9999.000000 -9999.000000 -9999.000000 -9999.000000 -9999.000000 -9999.000000 -9999.000000 -9999.000000 -9999.000000 -9999.000000 -9999.000000 -9999.000000 -9999.000000 -9999.000000 -9999.000000 -9999.000000 -9999.000000 -9999.000000 -9999.000000 -9999.000000 -9999.000000 -9999.000000 -9999.000000 -9999.000000 -9999.000000 -9999.000000 -9999.000000 -9999.000000 -9999.000000 -9999.000000 -9999.000000 -9999.000000 -9999.000000 -9999.000000 -9999.000000 -9999.000000 -9999.000000 -9999.000000 -9999.000000 -9999.000000 -9999.000000 -9999.000000 -9999.000000 -9999.000000 -9999.000000 -9999.000000 -9999.000000 -9999.000000 -9999.000000 -9999.000000 -9999.000000 -9999.000000 -9999.000000 -9999.000000 -9999.000000 -9999.000000 -9999.000000 -9999.000000 -9999.000000 -9999.000000 -9999.000000 -9999.000000 -9999.000000 -9999.000000 -9999.000000 -9999.000000 -9999.000000 -9999.000000 -9999.000000 -9999.000000 -9999.000000 -9999.000000 -9999.000000 -9999.000000 -9999.000000 -9999.000000 -9999.000000 -9999.000000 -9999.000000 -9999.000000 -9999.000000 -9999.000000 -9999.000000 -2.229000 -2.254375 -2.275000 -2.283125 -2.283125 -2.270000 -2.268750 -2.257500 -2.243125 -2.221250 -2.198750 -2.177500 -2.156250 -2.145625 -2.136250 -2.129375 -2.124375 -2.121250 -2.110625 -2.108750 -2.105625 -2.102500 -2.094375 -2.089375 -2.084375 -2.085000 -2.085625 -2.080000 -2.078750 -2.101875 -2.193125 -2.211250 -2.243125 -2.250000 -2.244375 -2.231250 -2.251250 -2.275000 -2.280000 -2.238750 -2.181250 -2.145000 -2.140000 -2.143125 -2.150000 -2.148125 -2.136250 -2.162500 -2.185625 -2.178750 -2.165000 -2.165000 -2.171875 -2.173750 -2.185625 -2.190625 -2.205625 -2.215625 -2.230000 -2.275000 -2.351875 -2.405000 -2.433125 -2.435625 -2.395000 -2.322500 -2.294375 -2.281250 -2.261875 -2.218125 -2.197500 -2.181250 -2.172500 -2.149375 -2.113125 -2.095000 -2.089375 -2.081250 -2.082500 -2.083750 -2.086250 -2.095000 -2.110000 -2.166875 -2.126250 -2.094375 -2.089375 -2.026250 -2.078125 -2.070000 -2.071250 -2.080000 -2.095625 -2.115000 -2.112500 -2.106875 -2.101250 -2.081250 -2.040000 -2.020625 -2.071250 -2.024000 -2.062222 -2.103333 -9999.000000 -9999.000000 -9999.000000 -9999.000000 -9999.000000 -9999.000000 -9999.000000 -9999.000000 -9999.000000 -9999.000000 -9999.000000 -9999.000000 -9999.000000 -9999.000000 -9999.000000 -9999.000000 -9999.000000 -9999.000000 -9999.000000 -9999.000000 -9999.000000 -9999.000000 -9999.000000 -9999.000000 -9999.000000 -9999.000000 -9999.000000 -9999.000000 -9999.000000 -9999.000000 -9999.000000 -9999.000000 -9999.000000 -9999.000000 -9999.000000 -9999.000000 -9999.000000 -9999.000000 -9999.000000 -9999.000000 -9999.000000 -9999.000000 -9999.000000 -9999.000000 -9999.000000 -9999.000000 -9999.000000 -9999.000000 -9999.000000 -9999.000000 -9999.000000 -9999.000000 -9999.000000 -9999.000000 -9999.000000 -9999.000000 -9999.000000 -9999.000000 -9999.000000 -9999.000000 -9999.000000 -9999.000000 -9999.000000 -9999.000000 -9999.000000 -9999.000000
-9999.000000 -9999.000000 -9999.000000 -9999.000000 -9999.000000 -9999.000000 -9999.000000 -9999.000000 -9999.000000 -9999.000000 -9999.000000 -9999.000000 -9999.000000 -9999.000000 -9999.000000 -9999.000000 -9999.000000 -9999.000000 -9999.000000 -9999.000000 -9999.000000 -9999.000000 -9999.000000 -9999.000000 -9999.000000 -9999.000000 -9999.000000 -9999.000000 -9999.000000 -9999.000000 -9999.000000 -9999.000000 -9999.000000 -9999.000000 -9999.000000 -9999.000000 -9999.000000 -9999.000000 -9999.000000 -9999.000000 -9999.000000 -9999.000000 -9999.000000 -9999.000000 -9999.000000 -9999.000000 -9999.000000 -9999.000000 -9999.000000 -9999.000000 -9999.000000 -9999.000000 -9999.000000 -9999.000000 -9999.000000 -9999.000000 -9999.000000 -9999.000000 -9999.000000 -9999.000000 -9999.000000 -9999.000000 -9999.000000 -9999.000000 -9999.000000 -9999.000000 -9999.000000 -9999.000000 -9999.000000 -9999.000000 -9999.000000 -9999.000000 -9999.000000 -9999.000000 -9999.000000 -9999.000000 -9999.000000 -9999.000000 -9999.000000 -9999.000000 -9999.000000 -9999.000000 -9999.000000 -9999.000000 -9999.000000 -9999.000000 -9999.000000 -9999.000000 -9999.000000 -2.230000 -2.230000 -2.250000 -2.255000 -2.249375 -2.238125 -2.233750 -2.214375 -2.201875 -2.185000 -2.176875 -2.159375 -2.145625 -2.131875 -2.125000 -2.130000 -2.130000 -2.126875 -2.115625 -2.121250 -2.113750 -2.103750 -2.091250 -2.081250 -2.070625 -2.081250 -2.077500 -2.080000 -2.071875 -2.082500 -2.113750 -2.178750 -2.230000 -2.246875 -2.245000 -2.237500 -2.228750 -2.208750 -2.167500 -2.150000 -2.150000 -2.145000 -2.138750 -2.140000 -2.148750 -2.155000 -2.136875 -2.125000 -2.164375 -2.175625 -2.159375 -2.161875 -2.168750 -2.181250 -2.188750 -2.192500 -2.223125 -2.269375 -2.320625 -2.376875 -2.400625 -2.393125 -2.380000 -2.354375 -2.318125 -2.283750 -2.270625 -2.278750 -2.240625 -2.215000 -2.200625 -2.188125 -2.165625 -2.145625 -2.127500 -2.124375 -2.113125 -2.101875 -2.095000 -2.101250 -2.099375 -2.103750 -2.121250 -2.134375 -2.128750 -2.102500 -2.100000 -2.089375 -2.087500 -2.079375 -2.088750 -2.094375 -2.085000 -2.140769 -2.143750 -2.136875 -2.135625 -2.118750 -2.091875 -2.125000 -2.101667 -9999.000000 -9999.000000 -9999.000000 -9999.000000 -9999.000000 -9999.000000 -9999.000000 -9999.000000 -9999.000000 -9999.000000 -9999.000000 -9999.000000 -9999.000000 -9999.000000 -9999.000000 -9999.000000 -9999.000000 -9999.000000 -9999.000000 -9999.000000 -9999.000000 -9999.000000 -9999.000000 -9999.000000 -9999.000000 -9999.000000 -9999.000000 -9999.000000 -9999.000000 -9999.000000 -9999.000000 -9999.000000 -9999.000000 -9999.000000 -9999.000000 -9999.000000 -9999.000000 -9999.000000 -9999.000000 -9999.000000 -9999.000000 -9999.000000 -9999.000000 -9999.000000 -9999.000000 -9999.000000 -9999.000000 -9999.000000 -9999.000000 -9999.000000 -9999.000000 -9999.000000 -9999.000000 -9999.000000 -9999.000000 -9999.000000 -9999.000000 -9999.000000 -9999.000000 -9999.000000 -9999.000000 -9999.000000 -9999.000000 -9999.000000 -9999.000000 -9999.000000 -9999.000000 -9999.000000 -9999.000000
-9999.000000 -9999.000000 -9999.000000 -9999.000000 -9999.000000 -9999.000000 -9999.000000 -9999.000000 -9999.000000 -9999.000000 -9999.000000 -9999.000000 -9999.000000 -9999.000000 -9999.000000 -9999.000000 -9999.000000 -9999.000000 -9999.000000 -9999.000000 -9999.000000 -9999.000000 -9999.000000 -9999.000000 -9999.000000 -9999.000000 -9999.000000 -9999.000000 -9999.000000 -9999.000000 -9999.000000 -9999.000000 -9999.000000 -9999.000000 -9999.000000 -9999.000000 -9999.000000 -9999.000000 -9999.000000 -9999.000000 -9999.000000 -9999.000000 -9999.000000 -9999.000000 -9999.000000 -9999.000000 -9999.000000 -9999.000000 -9999.000000 -9999.000000 -9999.000000 -9999.000000 -9999.000000 -9999.000000 -9999.000000 -9999.000000 -9999.000000 -9999.000000 -9999.000000 -9999.000000 -9999.000000 -9999.000000 -9999.000000 -9999.000000 -9999.000000 -9999.000000 -9999.000000 -9999.000000 -9999.000000 -9999.000000 -9999.000000 -9999.000000 -9999.000000 -9999.000000 -9999.000000 -9999.000000 -9999.000000 -9999.000000 -9999.000000 -9999.000000 -9999.000000 -9999.000000 -9999.000000 -9999.000000 -9999.000000 -9999.000000 -9999.000000 -9999.000000 -9999.000000 -2.210000 -2.226250 -2.233125 -2.215000 -2.217500 -2.209375 -2.203125 -2.188750 -2.183125 -2.167500 -2.168125 -2.151875 -2.135625 -2.130625 -2.126875 -2.128125 -2.130000 -2.129375 -2.116875 -2.123125 -2.110625 -2.094375 -2.081875 -2.080625 -2.081250 -2.081250 -2.071875 -2.080625 -2.083125 -2.067500 -2.082500 -2.096875 -2.136250 -2.179375 -2.190625 -2.183125 -2.190000 -2.180000 -2.165625 -2.146875 -2.154375 -2.149375 -2.133125 -2.139375 -2.143750 -2.150625 -2.140000 -2.128750 -2.148125 -2.185000 -2.186875 -2.176875 -2.169375 -2.192500 -2.187500 -2.193750 -2.231250 -2.303750 -2.388750 -2.388750 -2.351875 -2.310000 -2.267500 -2.258750 -2.269375 -2.271250 -2.256875 -2.250625 -2.229375 -2.216250 -2.184375 -2.183750 -2.176250 -2.168125 -2.152500 -2.144375 -2.135625 -2.111250 -2.105625 -2.106250 -2.113750 -2.121875 -2.140625 -2.157500 -2.131875 -2.109375 -2.088750 -2.036875 -2.090667 -2.101875 -2.109375 -2.058750 -1.966250 -2.171333 -2.180625 -2.178125 -2.161429 -2.156667 -2.080000 -9999.000000 -9999.000000 -9999.000000 -9999.000000 -9999.000000 -9999.000000 -9999.000000 -9999.000000 -9999.000000 -9999.000000 -9999.000000 -9999.000000 -9999.000000 -9999.000000 -9999.000000 -9999.000000 -9999.000000 -9999.000000 -9999.000000 -9999.000000 -9999.000000 -9999.000000 -9999.000000 -9999.000000 -9999.000000 -9999.000000 -9999.000000 -9999.000000 -9999.000000 -9999.000000 -9999.000000 -9999.000000 -9999.000000 -9999.000000 -9999.000000 -9999.000000 -9999.000000 -9999.000000 -9999.000000 -9999.000000 -9999.000000 -9999.000000 -9999.000000 -9999.000000 -9999.000000 -9999.000000 -9999.000000 -9999.000000 -9999.000000 -9999.000000 -9999.000000 -9999.000000 -9999.000000 -9999.000000 -9999.000000 -9999.000000 -9999.000000 -9999.000000 -9999.000000 -9999.000000 -9999.000000 -9999.000000 -9999.000000 -9999.000000 -9999.000000 -9999.000000 -9999.000000 -9999.000000 -9999.000000 -9999.000000 -9999.000000
-9999.000000 -9999.000000 -9999.000000 -9999.000000 -9999.000000 -9999.000000 -9999.000000 -9999.000000 -9999.000000 -9999.000000 -9999.000000 -9999.000000 -9999.000000 -9999.000000 -9999.000000 -9999.000000 -9999.000000 -9999.000000 -9999.000000 -9999.000000 -9999.000000 -9999.000000 -9999.000000 -9999.000000 -9999.000000 -9999.000000 -9999.000000 -9999.000000 -9999.000000 -9999.000000 -9999.000000 -9999.000000 -9999.000000 -9999.000000 -9999.000000 -9999.000000 -9999.000000 -9999.000000 -9999.000000 -9999.000000 -9999.000000 -9999.000000 -9999.000000 -9999.000000 -9999.000000 -9999.000000 -9999.000000 -9999.000000 -9999.000000 -9999.000000 -9999.000000 -9999.000000 -9999.000000 -9999.000000 -9999.000000 -9999.000000 -9999.000000 -9999.000000 -9999.000000 -9999.000000 -9999.000000 -9999.000000 -9999.000000 -9999.000000 -9999.000000 -9999.000000 -9999.000000 -9999.000000 -9999.000000 -9999.000000 -9999.000000 -9999.000000 -9999.000000 -9999.000000 -9999.000000 -9999.000000 -9999.000000 -9999.000000 -9999.000000 -9999.000000 -9999.000000 -9999.000000 -9999.000000 -9999.000000 -9999.000000 -9999.000000 -9999.000000 -9999.000000 -9999.000000 -9999.000000 -2.204375 -2.209375 -2.210625 -2.196875 -2.188750 -2.186250 -2.165625 -2.169375 -2.165625 -2.170000 -2.149375 -2.138750 -2.138750 -2.132500 -2.128125 -2.139375 -2.131250 -2.118750 -2.115625 -2.117500 -2.095000 -2.086875 -2.091875 -2.095625 -2.089375 -2.091875 -2.094375 -2.101250 -2.100000 -2.108125 -2.115625 -2.118125 -2.129375 -2.150000 -2.174375 -2.190000 -2.185000 -2.169375 -2.151875 -2.144375 -2.163125 -2.133125 -2.135000 -2.137500 -2.141250 -2.137500 -2.141250 -2.163125 -2.195000 -2.184375 -2.180000 -2.183750 -2.193750 -2.185625 -2.196875 -2.236875 -2.284375 -2.316875 -2.282500 -2.230000 -2.228750 -2.243125 -2.259375 -2.289375 -2.276250 -2.245000 -2.248750 -2.237500 -2.225000 -2.215625 -2.198125 -2.186875 -2.175625 -2.171875 -2.157500 -2.148750 -2.135000 -2.121875 -2.122500 -2.115000 -2.146875 -2.181875 -2.178125 -2.162500 -2.141250 -2.127500 -2.099375 -2.124667 -2.116875 -2.123125 -2.125625 -2.180667 -2.160000 -2.198571 -2.184000 -9999.000000 -9999.000000 -9999.000000 -9999.000000 -9999.000000 -9999.000000 -9999.000000 -9999.000000 -9999.000000 -9999.000000 -9999.000000 -9999.000000 -9999.000000 -9999.000000 -9999.000000 -9999.000000 -9999.000000 -9999.000000 -9999.000000 -9999.000000 -9999.000000 -9999.000000 -9999.000000 -9999.000000 -9999.000000 -9999.000000 -9999.000000 -9999.000000 -9999.000000 -9999.000000 -9999.000000 -9999.000000 -9999.000000 -9999.000000 -9999.000000 -9999.000000 -9999.000000 -9999.000000 -9999.000000 -9999.000000 -9999.000000 -9999.000000 -9999.000000 -9999.000000 -9999.000000 -9999.000000 -9999.000000 -9999.000000 -9999.000000 -9999.000000 -9999.000000 -9999.000000 -9999.000000 -9999.000000 -9999.000000 -9999.000000 -9999.000000 -9999.000000 -9999.000000 -9999.000000 -9999.000000 -9999.000000 -9999.000000 -9999.000000 -9999.000000 -9999.000000 -9999.000000 -9999.000000 -9999.000000 -9999.000000 -9999.000000 -9999.000000 -9999.000000 -9999.000000
-9999.000000 -9999.000000 -9999.000000 -9999.000000 -9999.000000 -9999.000000 -9999.000000 -9999.000000 -9999.000000 -9999.000000 -9999.000000 -9999.000000 -9999.000000 -9999.000000 -9999.000000 -9999.000000 -9999.000000 -9999.000000 -9999.000000 -9999.000000 -9999.000000 -9999.000000 -9999.000000 -9999.000000 -9999.000000 -9999.000000 -9999.000000 -9999.000000 -9999.000000 -9999.000000 -9999.000000 -9999.000000 -9999.000000 -9999.000000 -9999.000000 -9999.000000 -9999.000000 -9999.000000 -9999.000000 -9999.000000 -9999.000000 -9999.000000 -9999.000000 -9999.000000 -9999.000000 -9999.000000 -9999.000000 -9999.000000 -9999.000000 -9999.000000 -9999.000000 -9999.000000 -9999.000000 -9999.000000 -9999.000000 -9999.000000 -9999.000000 -9999.000000 -9999.000000 -9999.000000 -9999.000000 -9999.000000 -9999.000000 -9999.000000 -9999.000000 -9999.000000 -9999.000000 -9999.000000 -9999.000000 -9999.000000 -9999.000000 -9999.000000 -9999.000000 -9999.000000 -9999.000000 -9999.000000 -9999.000000 -9999.000000 -9999.000000 -9999.000000 -9999.000000 -9999.000000 -9999.000000 -9999.000000 -9999.000000 -9999.000000 -9999.000000 -9999.000000 -9999.000000 -9999.000000 -2.195000 -2.183750 -2.188125 -2.176875 -2.178125 -2.166250 -2.160625 -2.159375 -2.160000 -2.165625 -2.145625 -2.136250 -2.132500 -2.131250 -2.136250 -2.131250 -2.138125 -2.117500 -2.115625 -2.117500 -2.099375 -2.111875 -2.108750 -2.095000 -2.104375 -2.115625 -2.113750 -2.113125 -2.113750 -2.125625 -2.127500 -2.120625 -2.133750 -2.142500 -2.171250 -2.189375 -2.190625 -2.172500 -2.158750 -2.145000 -2.154375 -2.147500 -2.146875 -2.143125 -2.144375 -2.145625 -2.145625 -2.158125 -2.183750 -2.173125 -2.178125 -2.189375 -2.180000 -2.177500 -2.198750 -2.238125 -2.255000 -2.247500 -2.240000 -2.231875 -2.231250 -2.250000 -2.276250 -2.291875 -2.273125 -2.274375 -2.277500 -2.267500 -2.248750 -2.226250 -2.203125 -2.184375 -2.172500 -2.179375 -2.176875 -2.158125 -2.153750 -2.100625 -2.123750 -2.141875 -2.165000 -2.210625 -2.194375 -2.186250 -2.156250 -2.123125 -2.163750 -2.150667 -2.164375 -2.145833 -2.128000 -2.220000 -9999.000000 -9999.000000 -9999.000000 -9999.000000 -9999.000000 -9999.000000 -9999.000000 -9999.000000 -9999.000000 -9999.000000 -9999.000000 -9999.000000 -9999.000000 -9999.000000 -9999.000000 -9999.000000 -9999.000000 -9999.000000 -9999.000000 -9999.000000 -9999.000000 -9999.000000 -9999.000000 -9999.000000 -9999.000000 -9999.000000 -9999.000000 -9999.000000 -9999.000000 -9999.000000 -9999.000000 -9999.000000 -9999.000000 -9999.000000 -9999.000000 -9999.000000 -9999.000000 -9999.000000 -9999.000000 -9999.000000 -9999.000000 -9999.000000 -9999.000000 -9999.000000 -9999.000000 -9999.000000 -9999.000000 -9999.000000 -9999.000000 -9999.000000 -9999.000000 -9999.000000 -9999.000000 -9999.000000 -9999.000000 -9999.000000 -9999.000000 -9999.000000 -9999.000000 -9999.000000 -9999.000000 -9999.000000 -9999.000000 -9999.000000 -9999.000000 -9999.000000 -9999.000000 -9999.000000 -9999.000000 -9999.000000 -9999.000000 -9999.000000 -9999.000000 -9999.000000 -9999.000000 -9999.000000 -9999.000000
-9999.000000 -9999.000000 -9999.000000 -9999.000000 -9999.000000 -9999.000000 -9999.000000 -9999.000000 -9999.000000 -9999.000000 -9999.000000 -9999.000000 -9999.000000 -9999.000000 -9999.000000 -9999.000000 -9999.000000 -9999.000000 -9999.000000 -9999.000000 -9999.000000 -9999.000000 -9999.000000 -9999.000000 -9999.000000 -9999.000000 -9999.000000 -9999.000000 -9999.000000 -9999.000000 -9999.000000 -9999.000000 -9999.000000 -9999.000000 -9999.000000 -9999.000000 -9999.000000 -9999.000000 -9999.000000 -9999.000000 -9999.000000 -9999.000000 -9999.000000 -9999.000000 -9999.000000 -9999.000000 -9999.000000 -9999.000000 -9999.000000 -9999.000000 -9999.000000 -9999.000000 -9999.000000 -9999.000000 -9999.000000 -9999.000000 -9999.000000 -9999.000000 -9999.000000 -9999.000000 -9999.000000 -9999.000000 -9999.000000 -9999.000000 -9999.000000 -9999.000000 -9999.000000 -9999.000000 -9999.000000 -9999.000000 -9999.000000 -9999.000000 -9999.000000 -9999.000000 -9999.000000 -9999.000000 -9999.000000 -9999.000000 -9999.000000 -9999.000000 -9999.000000 -9999.000000 -9999.000000 -9999.000000 -9999.000000 -9999.000000 -9999.000000 -9999.000000 -9999.000000 -9999.000000 -2.170833 -2.160000 -2.183750 -2.172500 -2.170000 -2.160625 -2.152500 -2.154375 -2.150000 -2.148750 -2.143125 -2.134375 -2.136250 -2.134375 -2.146250 -2.133750 -2.135625 -2.121875 -2.118125 -2.116250 -2.118750 -2.136875 -2.126250 -2.111875 -2.116875 -2.127500 -2.116250 -2.107500 -2.108125 -2.123125 -2.124375 -2.120000 -2.131250 -2.139375 -2.157500 -2.183750 -2.183750 -2.153750 -2.147500 -2.153125 -2.150625 -2.151875 -2.145000 -2.136250 -2.138750 -2.132500 -2.135000 -2.141875 -2.153750 -2.160625 -2.170000 -2.188125 -2.172500 -2.181250 -2.210000 -2.245000 -2.244375 -2.233125 -2.235000 -2.230625 -2.239375 -2.261875 -2.284375 -2.297500 -2.300625 -2.307500 -2.293125 -2.268750 -2.250625 -2.233750 -2.211250 -2.187500 -2.178750 -2.178750 -2.186875 -2.180000 -2.175000 -2.115000 -2.170000 -2.189375 -2.200000 -2.213750 -2.201875 -2.186875 -2.154375 -2.152000 -2.178182 -2.148000 -9999.000000 -9999.000000 -9999.000000 -9999.000000 -9999.000000 -9999.000000 -9999.000000 -9999.000000 -9999.000000 -9999.000000 -9999.000000 -9999.000000 -9999.000000 -9999.000000 -9999.000000 -9999.000000 -9999.000000 -9999.000000 -9999.000000 -9999.000000 -9999.000000 -9999.000000 -9999.000000 -9999.000000 -9999.000000 -9999.000000 -9999.000000 -9999.000000 -9999.000000 -9999.000000 -9999.000000 -9999.000000 -9999.000000 -9999.000000 -9999.000000 -9999.000000 -9999.000000 -9999.000000 -9999.000000 -9999.000000 -9999.000000 -9999.000000 -9999.000000 -9999.000000 -9999.000000 -9999.000000 -9999.000000 -9999.000000 -9999.000000 -9999.000000 -9999.000000 -9999.000000 -9999.000000 -9999.000000 -9999.000000 -9999.000000 -9999.000000 -9999.000000 -9999.000000 -9999.000000 -9999.000000 -9999.000000 -9999.000000 -9999.000000 -9999.000000 -9999.000000 -9999.000000 -9999.000000 -9999.000000 -9999.000000 -9999.000000 -9999.000000 -9999.000000 -9999.000000 -9999.000000 -9999.000000 -9999.000000 -9999.000000 -9999.000000 -9999.000000 -9999.000000
-9999.000000 -9999.000000 -9999.000000 -9999.000000 -9999.000000 -9999.000000 -9999.000000 -9999.000000 -9999.000000 -9999.000000 -9999.000000 -9999.000000 -9999.000000 -9999.000000 -9999.000000 -9999.000000 -9999.000000 -9999.000000 -9999.000000 -9999.000000 -9999.000000 -9999.000000 -9999.000000 -9999.000000 -9999.000000 -9999.000000 -9999.000000 -9999.000000 -9999.000000 -9999.000000 -9999.000000 -9999.000000 -9999.000000 -9999.000000 -9999.000000 -9999.000000 -9999.000000 -9999.000000 -9999.000000 -9999.000000 -9999.000000 -9999.000000 -9999.000000 -9999.000000 -9999.000000 -9999.000000 -9999.000000 -9999.000000 -9999.000000 -9999.000000 -9999.000000 -9999.000000 -9999.000000 -9999.000000 -9999.000000 -9999.000000 -9999.000000 -9999.000000 -9999.000000 -9999.000000 -9999.000000 -9999.000000 -9999.000000 -9999.000000 -9999.000000 -9999.000000 -9999.000000 -9999.000000 -9999.000000 -9999.000000 -9999.000000 -9999.000000 -9999.000000 -9999.000000 -9999.000000 -9999.000000 -9999.000000 -9999.000000 -9999.000000 -9999.000000 -9999.000000 -9999.000000 -9999.000000 -9999.000000 -9999.000000 -9999.000000 -9999.000000 -9999.000000 -9999.000000 -9999.000000 -2.148750 -2.140625 -2.162500 -2.164375 -2.159375 -2.152500 -2.148750 -2.151875 -2.148750 -2.144375 -2.135625 -2.128125 -2.126875 -2.129375 -2.125625 -2.125625 -2.126875 -2.131875 -2.123125 -2.136250 -2.144375 -2.147500 -2.138125 -2.126875 -2.116250 -2.103125 -2.093125 -2.095625 -2.103125 -2.102500 -2.116875 -2.126250 -2.126875 -2.135000 -2.162500 -2.186875 -2.193750 -2.172500 -2.155625 -2.151250 -2.150625 -2.151250 -2.137500 -2.130000 -2.128750 -2.121250 -2.128750 -2.131250 -2.145000 -2.158750 -2.175000 -2.180000 -2.181250 -2.201250 -2.223125 -2.234375 -2.230000 -2.221875 -2.217500 -2.245625 -2.270625 -2.295000 -2.306875 -2.310625 -2.318125 -2.319375 -2.303125 -2.266250 -2.242500 -2.228750 -2.217500 -2.198125 -2.186875 -2.185000 -2.191875 -2.200000 -2.208125 -2.212500 -2.240625 -2.230000 -2.228125 -2.275000 -2.245714 -2.201111 -2.140000 -9999.000000 -9999.000000 -9999.000000 -9999.000000 -9999.000000 -9999.000000 -9999.000000 -9999.000000 -9999.000000 -9999.000000 -9999.000000 -9999.000000 -9999.000000 -9999.000000 -9999.000000 -9999.000000 -9999.000000 -9999.000000 -9999.000000 -9999.000000 -9999.000000 -9999.000000 -9999.000000 -9999.000000 -9999.000000 -9999.000000 -9999.000000 -9999.000000 -9999.000000 -9999.000000 -9999.000000 -9999.000000 -9999.000000 -9999.000000 -9999.000000 -9999.000000 -9999.000000 -9999.000000 -9999.000000 -9999.000000 -9999.000000 -9999.000000 -9999.000000 -9999.000000 -9999.000000 -9999.000000 -9999.000000 -9999.000000 -9999.000000 -9999.000000 -9999.000000 -9999.000000 -9999.000000 -9999.000000 -9999.000000 -9999.000000 -9999.000000 -9999.000000 -9999.000000 -9999.000000 -9999.000000 -9999.000000 -9999.000000 -9999.000000 -9999.000000 -9999.000000 -9999.000000 -9999.000000 -9999.000000 -9999.000000 -9999.000000 -9999.000000 -9999.000000 -9999.000000 -9999.000000 -9999.000000 -9999.000000 -9999.000000 -9999.000000 -9999.000000 -9999.000000 -9999.000000 -9999.000000 -9999.000000
-1.817000 -1.805556 -1.820000 -1.870000 -1.829091 -1.842727 -1.826000 -1.861818 -1.824000 -1.834167 -1.822727 -1.836364 -1.825000 -1.785455 -1.870000 -1.871250 -1.866667 -1.862500 -1.860000 -9999.000000 -9999.000000 -9999.000000 -9999.000000 -9999.000000 -9999.000000 -9999.000000 -9999.000000 -9999.000000 -9999.000000 -9999.000000 -9999.000000 -9999.000000 -9999.000000 -9999.000000 -9999.000000 -9999.000000 -9999.000000 -9999.000000 -9999.000000 -9999.000000 -9999.000000 -9999.000000 -9999.000000 -9999.000000 -9999.000000 -9999.000000 -9999.000000 -9999.000000 -9999.000000 -9999.000000 -9999.000000 -9999.000000 -9999.000000 -9999.000000 -9999.000000 -9999.000000 -9999.000000 -9999.000000 -9999.000000 -9999.000000 -9999.000000 -9999.000000 -9999.000000 -9999.000000 -9999.000000 -9999.000000 -9999.000000 -9999.000000 -9999.000000 -9999.000000 -9999.000000 -9999.000000 -9999.000000 -9999.000000 -9999.000000 -9999.000000 -9999.000000 -9999.000000 -9999.000000 -9999.000000 -9999.000000 -9999.000000 -9999.000000 -9999.000000 -9999.000000 -9999.000000 -9999.000000 -9999.000000 -9999.000000 -9999.000000 -2.126667 -2.120000 -2.149375 -2.148125 -2.145000 -2.141875 -2.139375 -2.140625 -2.136250 -2.134375 -2.132500 -2.121875 -2.118750 -2.121875 -2.113750 -2.115625 -2.116875 -2.125625 -2.124375 -2.140000 -2.140625 -2.128750 -2.113750 -2.102500 -2.088750 -2.078750 -2.078125 -2.084375 -2.093750 -2.095625 -2.110625 -2.131875 -2.141250 -2.152500 -2.174375 -2.183750 -2.186875 -2.165000 -2.146875 -2.138750 -2.143125 -2.142500 -2.128750 -2.123125 -2.123750 -2.120625 -2.123750 -2.130625 -2.136875 -2.155625 -2.186250 -2.177500 -2.174375 -2.208125 -2.224375 -2.243750 -2.241250 -2.229375 -2.248750 -2.284375 -2.295625 -2.310000 -2.317500 -2.313750 -2.322500 -2.308125 -2.281875 -2.258750 -2.246875 -2.232500 -2.214375 -2.198750 -2.196875 -2.197500 -2.200000 -2.207500 -2.219375 -2.237500 -2.237500 -2.254667 -2.237778 -2.315000 -9999.000000 -9999.000000 -9999.000000 -9999.000000 -9999.000000 -9999.000000 -9999.000000 -9999.000000 -9999.000000 -9999.000000 -9999.000000 -9999.000000 -9999.000000 -9999.000000 -9999.000000 -9999.000000 -9999.000000 -9999.000000 -9999.000000 -9999.000000 -9999.000000 -9999.000000 -9999.000000 -9999.000000 -9999.000000 -9999.000000 -9999.000000 -9999.000000 -9999.000000 -9999.000000 -9999.000000 -9999.000000 -9999.000000 -9999.000000 -9999.000000 -9999.000000 -9999.000000 -9999.000000 -9999.000000 -9999.000000 -9999.000000 -9999.000000 -9999.000000 -9999.000000 -9999.000000 -9999.000000 -9999.000000 -9999.000000 -9999.000000 -9999.000000 -9999.000000 -9999.000000 -9999.000000 -9999.000000 -9999.000000 -9999.000000 -9999.000000 -9999.000000 -9999.000000 -9999.000000 -9999.000000 -9999.000000 -9999.000000 -9999.000000 -9999.000000 -9999.000000 -9999.000000 -9999.000000 -9999.000000 -9999.000000 -9999.000000 -9999.000000 -9999.000000 -9999.000000 -9999.000000 -9999.000000 -9999.000000 -9999.000000 -9999.000000 -9999.000000 -9999.000000 -9999.000000 -9999.000000 -9999.000000 -9999.000000 -9999.000000 -9999.000000
-1.810625 -1.808750 -1.811875 -1.853125 -1.829375 -1.841875 -1.842500 -1.857500 -1.863750 -1.852500 -1.851875 -1.848125 -1.840625 -1.854375 -1.863125 -1.866875 -1.871875 -1.854375 -1.868750 -1.858667 -1.843125 -1.846154 -1.872500 -1.864000 -1.876250 -1.907500 -1.865000 -1.897500 -1.892500 -1.990000 -9999.000000 -9999.000000 -9999.000000 -9999.000000 -9999.000000 -9999.000000 -9999.000000 -9999.000000 -9999.000000 -9999.000000 -9999.000000 -9999.000000 -9999.000000 -9999.000000 -9999.000000 -9999.000000 -9999.000000 -9999.000000 -9999.000000 -9999.000000 -9999.000000 -9999.000000 -9999.000000 -9999.000000 -9999.000000 -9999.000000 -9999.000000 -9999.000000 -9999.000000 -9999.000000 -9999.000000 -9999.000000 -9999.000000 -9999.000000 -9999.000000 -9999.000000 -9999.000000 -9999.000000 -9999.000000 -9999.000000 -9999.000000 -9999.000000 -9999.000000 -9999.000000 -9999.000000 -9999.000000 -9999.000000 -9999.000000 -9999.000000 -9999.000000 -9999.000000 -9999.000000 -9999.000000 -9999.000000 -9999.000000 -9999.000000 -9999.000000 -9999.000000 -9999.000000 -9999.000000 -2.106667 -2.114375 -2.132500 -2.140000 -2.137500 -2.132500 -2.130000 -2.130625 -2.128750 -2.131875 -2.133125 -2.123125 -2.112500 -2.113750 -2.120000 -2.115000 -2.118125 -2.128125 -2.125000 -2.143750 -2.136250 -2.116875 -2.097500 -2.090625 -2.078125 -2.068750 -2.075000 -2.078125 -2.083750 -2.095000 -2.113750 -2.131875 -2.145000 -2.162500 -2.168750 -2.161875 -2.157500 -2.153125 -2.137500 -2.132500 -2.139375 -2.139375 -2.128125 -2.128750 -2.126875 -2.123125 -2.129375 -2.135625 -2.147500 -2.153750 -2.180625 -2.181250 -2.191250 -2.215625 -2.250000 -2.276250 -2.267500 -2.252500 -2.277500 -2.301250 -2.296250 -2.301250 -2.308125 -2.313750 -2.320000 -2.304375 -2.275000 -2.255625 -2.240625 -2.231250 -2.222500 -2.205000 -2.206875 -2.199375 -2.202500 -2.215000 -2.227500 -2.240769 -2.260000 -2.280000 -9999.000000 -9999.000000 -9999.000000 -9999.000000 -9999.000000 -9999.000000 -9999.000000 -9999.000000 -9999.000000 -9999.000000 -9999.000000 -9999.000000 -9999.000000 -9999.000000 -9999.000000 -9999.000000 -9999.000000 -9999.000000 -9999.000000 -9999.000000 -9999.000000 -9999.000000 -9999.000000 -9999.000000 -9999.000000 -9999.000000 -9999.000000 -9999.000000 -9999.000000 -9999.000000 -9999.000000 -9999.000000 -9999.000000 -9999.000000 -9999.000000 -9999.000000 -9999.000000 -9999.000000 -9999.000000 -9999.000000 -9999.000000 -9999.000000 -9999.000000 -9999.000000 -9999.000000 -9999.000000 -9999.000000 -9999.000000 -9999.000000 -9999.000000 -9999.000000 -9999.000000 -9999.000000 -9999.000000 -9999.000000 -9999.000000 -9999.000000 -9999.000000 -9999.000000 -9999.000000 -9999.000000 -9999.000000 -9999.000000 -9999.000000 -9999.000000 -9999.000000 -9999.000000 -9999.000000 -9999.000000 -9999.000000 -9999.000000 -9999.000000 -9999.000000 -9999.000000 -9999.000000 -9999.000000 -9999.000000 -9999.000000 -9999.000000 -9999.000000 -9999.000000 -9999.000000 -9999.000000 -9999.000000 -9999.000000 -9999.000000 -9999.000000 -9999.000000 -9999.000000
-1.816875 -1.818125 -1.823125 -1.864375 -1.840625 -1.846875 -1.847500 -1.858750 -1.853750 -1.878750 -1.860000 -1.850625 -1.853125 -1.858750 -1.874375 -1.881875 -1.882500 -1.865000 -1.879375 -1.768125 -1.888750 -1.884375 -1.879375 -1.886875 -1.893125 -1.887500 -1.882500 -1.898125 -1.916250 -1.937500 -1.910000 -1.920000 -1.917273 -1.940000 -1.930000 -1.930000 -9999.000000 -9999.000000 -9999.000000 -9999.000000 -9999.000000 -9999.000000 -9999.000000 -9999.000000 -9999.000000 -9999.000000 -9999.000000 -9999.000000 -9999.000000 -9999.000000 -9999.000000 -9999.000000 -9999.000000 -9999.000000 -9999.000000 -9999.000000 -9999.000000 -9999.000000 -9999.000000 -9999.000000 -9999.000000 -9999.000000 -9999.000000 -9999.000000 -9999.000000 -9999.000000 -9999.000000 -9999.000000 -9999.000000 -9999.000000 -9999.000000 -9999.000000 -9999.000000 -9999.000000 -9999.000000 -9999.000000 -9999.000000 -9999.000000 -9999.000000 -9999.000000 -9999.000000 -9999.000000 -9999.000000 -9999.000000 -9999.000000 -9999.000000 -9999.000000 -9999.000000 -9999.000000 -9999.000000 -9999.000000 -2.104667 -2.107500 -2.130000 -2.131875 -2.118750 -2.116250 -2.119375 -2.121875 -2.124375 -2.131875 -2.123125 -2.115000 -2.108750 -2.118750 -2.110625 -2.108750 -2.120625 -2.133750 -2.148125 -2.116250 -2.099375 -2.090625 -2.080000 -2.073125 -2.068750 -2.073750 -2.079375 -2.083125 -2.090625 -2.105625 -2.138125 -2.150625 -2.164375 -2.163750 -2.150000 -2.138750 -2.141875 -2.130625 -2.131250 -2.144375 -2.140000 -2.142500 -2.139375 -2.135625 -2.135000 -2.136250 -2.145625 -2.158125 -2.173750 -2.180625 -2.194375 -2.216250 -2.256250 -2.266875 -2.275625 -2.275625 -2.262500 -2.295625 -2.300000 -2.303125 -2.305000 -2.301250 -2.313125 -2.307500 -2.291250 -2.274375 -2.260625 -2.246250 -2.238125 -2.226875 -2.216875 -2.215000 -2.220000 -2.226250 -2.233333 -2.232500 -9999.000000 -9999.000000 -9999.000000 -9999.000000 -9999.000000 -9999.000000 -9999.000000 -9999.000000 -9999.000000 -9999.000000 -9999.000000 -9999.000000 -9999.000000 -9999.000000 -9999.000000 -9999.000000 -9999.000000 -9999.000000 -9999.000000 -9999.000000 -9999.000000 -9999.000000 -9999.000000 -9999.000000 -9999.000000 -9999.000000 -9999.000000 -9999.000000 -9999.000000 -9999.000000 -9999.000000 -9999.000000 -9999.000000 -9999.000000 -9999.000000 -9999.000000 -9999.000000 -9999.000000 -9999.000000 -9999.000000 -9999.000000 -9999.000000 -9999.000000 -9999.000000 -9999.000000 -9999.000000 -9999.000000 -9999.000000 -9999.000000 -9999.000000 -9999.000000 -9999.000000 -9999.000000 -9999.000000 -9999.000000 -9999.000000 -9999.000000 -9999.000000 -9999.000000 -9999.000000 -9999.000000 -9999.000000 -9999.000000 -9999.000000 -9999.000000 -9999.000000 -9999.000000 -9999.000000 -9999.000000 -9999.000000 -9999.000000 -9999.000000 -9999.000000 -9999.000000 -9999.000000 -9999.000000 -9999.000000 -9999.000000 -9999.000000 -9999.000000 -9999.000000 -9999.000000 -9999.000000 -9999.000000 -9999.000000 -9999.000000 -9999.000000 -9999.000000 -9999.000000 -9999.000000 -9999.000000 -9999.000000
